ply
format ascii 1.0
element vertex 830
property float x
property float y
property float z
property float nx
property float ny
property float nz
end_header
-25.832951 -7.038034 -0.164779 -0.077852 0.996962 0.002384
-25.544046 -7.010142 0.002178 -0.110873 0.992659 -0.048327
-25.869917 -7.013038 0.483223 -0.075011 0.996765 -0.028849
-26.053961 -6.984664 0.297244 -0.095298 0.994990 -0.030208
-25.463137 -6.945856 0.479158 -0.090042 0.995800 -0.016552
-25.206335 -6.886162 0.294114 -0.122732 0.991863 -0.033837
-26.204721 -7.036909 1.133272 -0.098109 0.994964 0.020521
-26.108824 -7.007677 0.958255 -0.100827 0.994588 0.025088
-25.649990 -6.971310 0.945187 -0.085590 0.996285 0.009544
-25.235130 -6.945068 0.934126 -0.088633 0.995421 0.035788
1.266328 -5.130128 -1.099272 0.953889 0.298558 0.030953
1.032223 -4.684401 -1.076287 -0.046991 0.843607 0.534901
1.151974 -4.776265 -1.054296 -0.644544 0.759595 0.087057
1.204600 -5.142143 -0.572261 0.912506 0.405121 0.056647
1.040379 -4.757338 -0.547280 -0.198462 0.978214 -0.060913
1.163462 -5.013210 -0.741269 0.935512 0.307586 0.173806
1.195554 -5.094116 -0.157265 0.949286 0.314414 -0.000858
0.893949 -4.750451 -0.038256 -0.049499 0.890671 0.451946
1.153463 -4.981166 -0.148271 0.920737 0.389092 -0.029153
1.192613 -5.106079 0.260737 0.953928 0.298693 0.028362
0.875011 -4.736442 0.281745 -0.099033 0.912172 0.397661
1.133509 -4.956144 0.324729 0.933384 0.345197 0.098152
4.427560 -17.721048 -1.142274 -0.292598 0.896172 -0.333561
4.458014 -18.587921 -0.644182 -0.024812 0.164106 0.986131
4.787401 -18.543575 -0.646228 -0.003411 0.153643 0.988120
4.465169 -18.100950 -0.730237 -0.263776 0.481435 0.835849
4.876670 -19.359390 -0.211149 0.037844 0.294411 0.954929
4.616299 -19.483662 -0.213103 0.053055 0.244904 0.968095
6.107019 -23.054855 0.020107 0.224769 0.706310 0.671271
5.956089 -22.967031 -0.124884 0.117348 0.761504 0.637449
5.885269 -24.208019 0.012261 -0.311950 0.914510 -0.257601
6.172684 -24.114735 -0.140784 -0.311950 0.914510 -0.257601
5.622730 -24.243275 0.287297 -0.218784 0.857616 -0.465434
5.967107 -24.173908 0.287247 -0.299984 0.889519 -0.344622
6.144833 -24.169731 0.170225 -0.334142 0.889688 -0.311134
5.524800 -23.584389 0.578236 0.033779 0.629665 0.776132
5.955158 -23.582928 0.580184 0.142545 0.653719 0.743191
6.190313 -23.883663 0.585188 0.965303 0.111208 0.236271
5.627463 -23.478296 0.453212 0.025400 0.635292 0.771854
5.936986 -23.467966 0.454173 0.250429 0.512207 0.821541
6.144752 -23.511747 0.455153 0.389972 0.534126 0.750087
5.878713 -23.841978 0.769221 0.203298 0.620428 0.757456
6.179411 -23.926655 0.773194 -0.920474 -0.088448 -0.380663
11.939422 -45.166355 0.357830 -0.212072 0.103552 0.971752
14.763111 -62.101231 1.967339 0.030767 0.436206 0.899321
15.795912 -63.350052 2.008354 0.108938 0.216459 0.970195
15.394817 -63.002499 1.996363 0.002988 0.335534 0.942023
16.600809 -62.603283 1.688181 -0.019307 0.459055 0.888198
16.759256 -62.988064 2.005205 0.076187 0.403497 0.911803
16.128693 -62.182770 1.979190 0.008786 0.496793 0.867825
15.982382 -63.765789 2.437378 0.044273 0.094244 0.994564
17.039125 -63.722687 2.444252 0.095598 -0.023649 0.995139
15.814180 -63.517986 2.427370 -0.069276 0.283867 0.956358
16.365393 -62.779449 2.408227 -0.033217 0.398004 0.916782
17.044001 -64.333786 0.885317 -0.126528 -0.151207 0.980371
16.782139 -64.224037 1.222335 0.379571 -0.214812 0.899879
16.435879 -65.051270 2.057465 0.202542 -0.437644 0.876039
17.021818 -64.794670 2.054370 -0.346954 0.641142 -0.684514
16.690313 -64.858971 2.479414 -0.161894 0.591440 -0.789930
15.557548 -64.200218 2.448474 0.112120 -0.026021 0.993354
16.286602 -64.122444 2.451381 0.119058 -0.175363 0.977278
3.363619 -6.641179 -1.055376 -0.457242 0.618669 0.638889
3.567749 -6.485093 -1.186417 -0.284141 0.953074 -0.104468
4.514028 -8.885906 -0.531256 -0.452720 0.891538 -0.014337
4.802185 -8.761749 -0.533300 -0.570511 0.819086 0.060123
4.664132 -8.142971 -0.376352 0.062587 0.415688 0.907351
4.042737 -7.377553 -0.676370 0.051340 -0.087617 0.994830
4.374197 -8.821985 -0.174248 0.221441 0.969772 -0.102501
3.862046 -8.239465 -0.310255 -0.048770 0.365773 0.929425
4.421235 -8.417044 -0.218297 0.082256 0.391429 0.916525
4.655142 -8.137974 -0.326351 0.062587 0.415688 0.907351
4.787520 -9.869525 -0.551179 -0.111540 -0.023335 0.993486
4.651839 -8.920781 -0.183267 -0.072300 0.994424 0.076765
9.933512 -17.304562 -0.211907 -0.873834 0.142472 0.464882
10.005930 -18.151318 -0.227829 0.893304 0.126463 -0.431294
9.955358 -17.792431 -0.220861 0.994133 0.085056 0.066817
10.342422 -22.102266 0.015543 -0.249090 0.314199 0.916096
10.775727 -22.029972 0.014493 0.021482 -0.080269 0.996542
10.775727 -22.029972 0.014493 0.021482 -0.080269 0.996542
18.417717 -32.698654 0.587871 0.993807 -0.039225 -0.103969
18.517118 -32.396671 0.585833 -0.791571 0.609181 0.048107
16.172310 -32.767090 0.765078 -0.108564 0.430489 0.896043
18.462763 -32.750603 0.781872 -0.992133 0.085221 0.091704
18.624918 -32.332588 1.059818 -0.649234 0.755918 -0.084161
18.592180 -33.071392 1.493893 0.999875 0.014664 0.005864
18.462620 -32.650589 1.240862 0.994172 -0.103907 0.028716
18.585999 -32.344574 1.471822 -0.805708 0.573398 0.148492
18.699059 -34.301071 1.100004 0.996392 0.053288 -0.066058
18.640099 -33.682274 0.794948 0.993464 0.076887 -0.084362
18.683613 -34.018143 1.093977 0.997274 0.065182 -0.034588
18.688786 -34.115086 1.525987 0.996293 0.081977 -0.026059
18.628927 -33.557274 1.264937 0.994501 0.104132 -0.011137
18.677351 -33.841160 1.517961 0.996369 0.084385 -0.011352
18.858204 -36.335522 1.143191 0.995363 -0.076318 -0.058553
18.954056 -35.694595 1.131119 0.963413 -0.263245 -0.050379
18.874872 -36.745388 1.608230 0.996516 -0.066417 -0.050453
18.859930 -36.156521 1.590173 0.994850 -0.101342 -0.001627
18.902126 -35.689594 1.577123 0.980134 -0.197499 -0.018230
19.172094 -35.855404 1.328116 0.963413 -0.263245 -0.050379
18.990644 -35.452591 1.571092 0.944428 -0.317203 -0.086247
19.016426 -39.034855 1.404447 0.994801 0.045617 -0.091046
19.008909 -38.710918 1.395415 -0.989891 0.098426 0.102116
18.990372 -38.368000 1.387382 -0.981183 0.157815 0.111237
19.246708 -38.128876 1.384335 0.961308 -0.266206 -0.070856
19.084604 -37.957020 1.378333 0.961308 -0.266206 -0.070856
19.084604 -37.957020 1.378333 0.961308 -0.266206 -0.070856
19.055393 -39.032806 1.680443 0.986374 0.087323 -0.139433
19.042866 -38.698879 1.669411 0.988633 -0.109112 -0.103442
19.183161 -40.836403 1.450614 0.988963 -0.134884 -0.061305
19.321079 -40.265423 1.227543 0.965399 -0.256577 -0.046620
19.256739 -41.234253 1.750647 0.994768 -0.081075 -0.062153
19.231140 -40.846340 1.738610 0.988963 -0.134884 -0.061305
19.271168 -40.272415 1.721548 0.965399 -0.256577 -0.046620
9.872240 -12.271217 -1.061385 0.998685 0.050854 0.006538
9.877314 -11.792411 -1.120428 -0.987215 -0.114962 0.110410
9.955954 -12.170202 -0.685400 -0.175776 0.974515 -0.139370
9.908126 -12.762018 -1.093343 0.993536 0.113163 -0.008934
9.864230 -12.779005 -0.708338 -0.984354 -0.149970 -0.092499
10.491334 -12.720764 -0.430388 -0.927866 0.111275 0.355924
10.509527 -12.833707 -0.325379 -0.471465 0.056221 0.880091
10.471953 -12.503853 -0.316406 -0.424390 0.762875 0.487766
10.914683 -13.701151 0.607670 -0.252358 -0.025732 0.967292
10.852051 -13.320325 0.599640 -0.270047 -0.009718 0.962798
11.320397 -13.810946 0.699651 -0.263279 -0.038322 0.963958
10.788676 -15.278755 -1.175176 0.116565 0.902608 -0.414382
10.825922 -15.429659 -0.742164 0.179170 0.504000 0.844915
12.525023 -15.502889 -0.432282 -0.123491 0.937582 -0.325099
12.446183 -15.538898 -0.313274 -0.074011 0.938548 -0.337121
12.519913 -15.429896 -0.072289 -0.162722 0.968311 -0.189459
12.466768 -15.305937 0.407704 -0.040865 0.997420 -0.059025
11.606786 -15.303259 0.736765 -0.120894 0.423780 -0.897661
11.989107 -15.177142 0.863726 -0.252091 0.397984 -0.882076
11.448977 -14.754528 0.722726 -0.274715 -0.030809 0.961032
11.877375 -14.701372 0.848691 -0.274077 -0.029028 0.961269
11.362188 -14.267749 0.710689 -0.269486 -0.012062 0.962929
11.825644 -14.267567 0.835657 -0.267130 -0.013246 0.963569
12.779576 -17.675018 -0.890105 -0.282920 -0.109104 0.952918
12.852754 -17.257130 -0.876149 -0.570405 -0.170228 0.803530
13.269589 -17.436897 -1.035162 0.923083 0.383491 0.029199
12.782080 -16.830311 -0.856182 -0.496750 -0.104942 0.861526
13.137872 -17.497889 -0.365147 0.997505 0.000356 0.070603
13.207296 -17.218969 -0.489178 0.997125 -0.068750 0.031869
12.956640 -16.692282 -0.735207 -0.534012 0.287892 0.794952
13.224442 -16.745136 -0.477221 -0.761319 0.420608 0.493439
12.537163 -15.590858 -0.566276 -0.096405 0.944280 -0.314707
12.657100 -15.634802 -0.690280 -0.096977 0.951493 -0.291986
12.826634 -15.475786 -0.438305 -0.017276 0.937580 -0.347341
13.139980 -17.554850 -0.101142 0.987614 0.112368 0.109510
13.041366 -17.143040 -0.095173 0.900149 -0.071497 0.429674
13.367862 -17.065933 -0.097203 0.500927 -0.621219 0.602627
12.847801 -16.696276 0.040801 0.967628 0.251805 0.017056
13.363421 -16.816038 -0.244224 0.967229 -0.151039 -0.204095
12.993062 -16.375345 -0.086238 0.944863 0.323043 0.053639
12.765813 -15.534777 -0.318296 -0.008178 0.949708 -0.313030
12.868395 -15.359796 -0.074318 -0.019150 0.980027 -0.197942
12.865689 -17.204067 0.274846 0.934941 -0.068017 -0.348222
13.186636 -17.377857 0.428838 0.970671 -0.164409 -0.175407
13.646608 -17.083776 0.540780 -0.230378 0.594588 0.770319
13.017599 -16.686195 0.273788 0.885554 0.282150 -0.369033
13.359674 -16.940943 0.536787 -0.219268 0.390086 0.894290
12.879347 -16.455338 0.273777 0.883940 0.321829 -0.339229
12.802588 -15.982556 0.175741 -0.541990 -0.124054 -0.831178
13.428219 -17.289774 0.707813 -0.692162 0.419582 0.587251
13.434840 -18.827335 -0.957048 0.872027 0.099224 0.479296
13.305641 -18.616428 -0.391058 -0.793792 0.596343 0.119455
13.021449 -18.325674 -0.661063 -0.709172 0.690605 0.141914
13.266022 -18.242590 -0.664089 0.849168 -0.514133 -0.120748
13.142591 -17.909742 -0.373110 -0.925483 0.112252 -0.361774
13.321157 -17.784727 -0.651135 -0.961141 -0.029525 -0.274474
13.885256 -19.337893 0.018965 -0.332959 0.266781 0.904415
13.548072 -19.015165 -0.121039 -0.570298 0.217631 0.792084
13.797485 -18.837103 0.022926 -0.272501 -0.105527 0.956351
13.020332 -18.249672 -0.264070 -0.645746 0.712710 0.273963
13.364082 -18.328480 -0.111088 -0.355363 0.826999 0.435649
13.334862 -17.616755 -0.257151 0.982260 -0.008541 -0.187330
13.639252 -19.169044 0.281968 -0.316629 0.334418 0.887643
13.695774 -19.506907 0.282995 -0.415114 0.105503 0.903631
13.939962 -18.625107 0.170896 -0.447154 -0.149236 0.881919
13.018648 -18.415583 0.278945 -0.817472 0.512763 -0.262322
13.312456 -18.502424 0.171931 -0.732755 0.554826 -0.394002
13.917451 -18.314220 0.279870 -0.564078 -0.296239 0.770752
13.125267 -17.696770 0.430871 0.813399 0.554147 0.176928
13.380986 -17.699652 0.545853 0.537850 0.713024 0.449793
13.771070 -18.003395 0.278853 0.643666 0.620378 -0.448135
13.743787 -18.380224 0.985888 -0.033968 0.621144 -0.782960
13.125262 -17.687756 0.710871 0.976642 0.170713 -0.130489
13.469843 -17.665600 0.960844 -0.588812 0.075255 0.804759
13.806056 -17.435566 0.715800 -0.919984 0.009204 -0.391848
13.855052 -19.773752 0.170008 -0.603616 0.110001 0.789650
17.189157 -24.305668 0.661174 -0.032138 0.964998 -0.260282
17.209833 -24.118706 0.884156 -0.098596 0.992896 -0.066609
17.980824 -23.984407 0.892088 0.519628 0.812603 0.263937
17.244389 -24.464552 1.222185 -0.285328 0.119225 0.950986
18.105930 -24.745134 0.160147 0.994970 0.100162 0.001218
18.035027 -24.160383 -0.030900 -0.996454 -0.081865 -0.019451
17.990841 -24.022449 -0.029909 -0.956701 -0.201084 -0.210446
17.959978 -24.682211 0.304152 0.994970 0.100162 0.001218
17.949697 -24.506277 0.304137 0.996285 0.086101 0.001566
18.097895 -24.701105 0.907144 0.992793 0.085836 -0.083633
18.045515 -24.445232 0.671125 0.988222 0.128798 -0.082639
18.083982 -24.737076 1.246148 0.950527 0.246499 0.189042
18.035255 -24.269260 1.232110 -0.777682 -0.452885 -0.436011
20.039291 -28.564939 0.561352 0.287029 0.581197 -0.761462
20.417557 -28.340839 0.561304 0.287029 0.581197 -0.761463
20.010641 -28.134054 1.158315 0.287029 0.581197 -0.761462
20.237743 -28.343908 0.738317 0.287029 0.581197 -0.761463
20.116243 -28.566862 1.169346 0.287029 0.581197 -0.761463
20.230583 -28.224907 1.384307 0.287029 0.581197 -0.761462
22.485531 -32.027637 0.804487 -0.211079 0.974766 0.072643
22.787743 -31.712603 0.803437 -0.211949 0.975048 0.066021
22.418594 -32.009624 1.531490 -0.186900 0.981976 0.028132
13.486772 -2.318721 -0.897028 -0.890467 -0.055967 -0.451593
19.361845 -3.239831 -1.148057 -0.046484 0.867429 0.495385
19.302389 -1.714311 -0.996040 0.961405 0.063902 0.267614
18.031879 -3.078980 -0.501051 0.910507 -0.413153 0.016789
18.966970 -3.298768 -0.538056 -0.118359 0.984355 0.130525
17.760862 -3.025035 -0.701050 -0.360316 -0.894626 -0.264228
19.129444 -1.760265 -0.761040 0.976963 0.187246 -0.102385
19.237955 -3.321743 -0.304057 -0.271655 0.953925 0.127403
19.353922 -3.302752 0.405942 -0.140886 0.989830 -0.019653
19.056986 -3.316735 0.739944 -0.124218 0.991838 -0.028767
19.151937 -3.284765 0.865943 -0.117693 0.992994 -0.010521
20.749554 -3.128936 -1.095062 -0.107841 0.991872 -0.067528
21.510422 -3.083978 -1.026064 -0.135109 0.949001 0.284856
21.612455 -3.128931 -0.638064 -0.045815 0.998696 0.022545
21.666433 -3.110945 -0.366064 0.040949 0.999160 -0.001759
21.541431 -3.090962 -0.099064 -0.015774 0.999504 -0.027243
19.966757 -3.225828 0.270940 -0.089319 0.995998 -0.003165
20.492641 -3.178873 0.271939 -0.087323 0.995965 0.020709
21.491428 -3.076970 0.426937 -0.024912 0.999673 0.005781
21.227406 -3.022025 0.273938 -0.077350 0.996912 0.013576
21.490473 -3.121923 0.804936 -0.069903 0.997461 0.013623
22.117310 -3.030030 -1.059065 0.059274 0.874031 0.482240
22.421253 -3.000059 -1.076065 -0.150958 0.881861 0.446691
21.954378 -3.077968 0.544935 -0.062300 0.998047 -0.004580
22.202332 -3.054993 0.276935 -0.086638 0.996218 -0.006607
23.576180 -3.034012 0.446931 0.969593 0.237046 -0.060817
22.837215 -2.997050 0.278934 -0.008681 0.983208 -0.182283
22.812187 -2.956083 0.986934 0.053030 0.990434 -0.127388
23.389101 -2.918120 1.005933 -0.300315 -0.932512 -0.200578
23.713041 -2.879160 0.864933 -0.814674 -0.566663 -0.123287
25.077974 -4.161935 -0.927086 -0.781547 0.253566 0.569990
25.427912 -4.137958 -0.942087 -0.760557 0.247310 0.600326
23.878309 -3.232831 -0.868072 0.997467 0.018317 0.068737
24.093016 -2.898157 -1.015068 -0.402090 0.910506 0.096449
24.428957 -2.860194 -1.031068 -0.108978 0.994040 -0.002773
25.037842 -2.771281 -1.061068 -0.371912 0.905379 0.204867
25.447006 -4.248847 -0.621088 0.949994 0.257552 0.176573
25.065485 -3.580492 -0.606080 0.575321 0.750427 0.325370
25.387661 -3.831250 -0.617083 0.961547 0.269552 0.052631
23.893270 -3.182877 -0.567071 0.988237 0.152535 0.010985
23.865049 -2.913139 -0.565068 -0.916844 0.386725 0.099203
24.240993 -2.882169 -0.577068 -0.290364 0.954241 0.071502
25.008881 -2.815235 -0.601069 -0.273451 0.960501 -0.051602
25.335852 -2.811238 -0.611069 -0.141039 0.989733 0.023163
25.265612 -2.483558 -0.608063 -0.510330 0.821407 -0.254663
25.138899 -4.078005 0.004915 0.981735 0.185985 -0.040079
25.202049 -4.260831 -0.153087 -0.970871 -0.218434 -0.098472
25.120693 -3.832242 0.005917 0.956916 0.096450 -0.273879
25.360596 -3.747328 -0.332082 -0.829885 -0.098542 -0.549164
23.857283 -3.191864 -0.132071 0.998017 0.051991 0.035473
25.353140 -3.178875 0.004925 0.995644 -0.093154 -0.003985
23.827063 -2.922126 -0.131068 0.976586 -0.171893 0.129356
24.446945 -2.842205 -0.139068 -0.094116 0.995558 0.002380
24.818890 -2.806240 -0.145068 -0.295303 0.952819 -0.070231
25.280832 -2.777268 -0.151069 0.969020 0.219678 0.112880
25.839769 -2.747299 -0.340069 0.070420 0.984041 -0.163415
25.369564 -2.424613 -0.152062 0.956328 -0.284889 -0.065383
25.386145 -4.394697 0.287911 0.997219 -0.060672 -0.043281
25.115814 -3.968105 0.593916 0.925725 0.139857 -0.351387
25.353708 -3.879195 0.166916 0.984913 0.155929 -0.075055
23.887377 -3.302751 0.450927 0.997063 0.056445 -0.051772
25.453152 -3.202851 0.166924 0.983754 -0.172460 0.049856
23.836088 -2.953091 0.449932 -0.773415 0.633844 -0.008470
24.443962 -2.860183 0.283932 -0.106122 0.994298 -0.010467
24.679920 -2.831213 0.167932 -0.211124 0.976654 -0.039668
25.266850 -2.796246 0.286931 0.854093 0.319679 -0.410280
25.171579 -2.426608 0.286938 0.987913 -0.109534 0.109685
25.246464 -2.273758 0.286941 0.967797 -0.003126 0.251713
25.516006 -4.244834 0.918912 -0.957188 -0.161041 0.240536
25.401657 -3.817247 0.913917 0.886719 0.134781 -0.442226
23.850327 -3.238809 0.869928 -0.932280 -0.349777 0.092243
24.251987 -2.868171 0.879932 -0.297672 0.954569 -0.013785
24.668911 -2.814224 0.773932 -0.208935 0.977844 -0.012934
25.385849 -2.801236 0.909931 0.630440 0.743991 -0.221412
25.768793 -2.762275 0.920931 0.118469 0.973101 -0.197582
25.236498 -2.317711 0.784940 0.986985 0.126320 -0.099515
27.082539 -2.535510 -0.845067 -0.103014 0.976303 0.190317
26.018740 -2.723325 -0.633069 0.001732 0.993839 0.110817
26.360682 -2.675371 -0.644069 -0.076946 0.986177 0.146743
26.650688 -2.707338 -0.357070 -0.076718 0.988197 0.132593
27.397579 -2.618426 -0.513069 -0.096193 0.987926 0.121445
27.423513 -2.523520 -0.677067 -0.092961 0.983843 0.153005
26.481693 -2.698345 -0.168069 -0.114007 0.992854 0.035273
27.758522 -2.562479 -0.185069 -0.235513 0.967074 0.096449
26.041746 -2.727313 0.471931 -0.096667 0.995308 0.004173
27.584669 -2.756285 0.486928 -0.498752 0.857765 0.124439
27.706549 -2.592445 0.487931 -0.479670 0.876056 0.049412
26.203714 -2.696340 0.807931 0.039723 0.997874 -0.051658
27.593689 -2.784254 0.970927 -0.419685 0.896265 0.143432
27.978519 -2.577466 -0.384069 -0.132739 0.988831 0.067776
28.259497 -2.565478 -0.535069 -0.048403 0.998396 -0.029377
28.913443 -2.533510 -0.552070 0.017750 0.961383 -0.274641
28.398462 -2.526516 -0.393069 -0.025230 0.988770 -0.147298
28.234467 -2.517523 -0.192068 -0.065939 0.988082 -0.139092
28.162506 -2.567469 0.637931 -0.372838 0.923296 0.092284
28.666452 -2.523512 0.644931 0.010202 0.999624 0.025447
27.914541 -2.596438 0.978930 -0.383036 0.902455 0.197126
28.374485 -2.549484 0.990931 -0.217675 0.946295 0.239049
28.291483 -2.536496 1.169931 -0.299804 0.933108 0.198564
30.991886 -4.803294 0.684889 0.136087 0.613509 0.777873
19.230017 -1.283734 -0.989032 -0.980028 -0.048293 -0.192905
19.141426 -0.559447 -0.880015 0.984630 0.173310 -0.021626
19.252590 -0.769241 -0.989021 0.990215 0.129365 -0.052343
19.826616 -0.825186 -1.261022 0.075110 -0.136870 0.987737
18.905378 -0.493512 -0.866014 -0.961895 0.239865 0.131232
19.239328 -0.436569 -0.988012 0.803378 -0.595308 0.013877
19.996260 -0.360644 -1.272010 -0.501918 0.780242 -0.373231
19.337343 -1.664358 -0.544039 -0.928113 -0.245629 0.279772
19.258995 -1.258757 -0.655031 0.973822 0.059574 -0.219365
19.311573 -0.750258 -0.541020 -0.927306 0.084138 0.364726
19.285355 -0.472533 -0.654013 -0.856510 0.413770 0.308519
19.511326 -1.656364 -0.306039 0.848479 0.155279 -0.505938
19.588112 -1.413602 -0.070035 -0.763232 0.103514 0.637778
19.689877 -1.141870 -0.071029 -0.501501 0.169356 0.848419
19.523539 -0.714293 -0.205019 -0.633843 0.351749 0.688851
19.833420 -0.569436 -0.211016 -0.136028 0.602605 0.786361
20.406218 -0.309695 -1.202009 -0.359761 0.919745 -0.156976
20.969166 -0.243760 -1.095007 -0.118496 0.973886 0.193662
21.486128 -0.192810 -1.012006 -0.112737 0.992469 0.047916
20.986933 -1.282733 -0.344034 0.500490 -0.588356 0.635096
20.001265 -0.367637 -0.567011 -0.110354 0.939414 0.324537
20.426241 -0.342661 -0.584010 -0.066484 0.965366 0.252288
20.994194 -0.285718 -0.605008 -0.071770 0.960820 0.267719
21.471224 -0.333670 -0.355010 -0.157159 0.935177 0.317403
21.993103 -0.159842 -0.644005 -0.112866 0.993409 0.019979
21.925013 -0.021978 -0.641001 -0.038060 0.979049 0.200037
20.022274 -1.635385 -0.319040 -0.051406 -0.643887 0.763392
19.998701 -0.939070 -0.075025 -0.162445 0.277464 0.946903
20.308603 -0.825183 -0.079023 -0.123904 0.561087 0.818431
20.722506 -0.711296 -0.085020 0.084400 0.441036 0.893512
20.499292 -0.415589 -0.330012 -0.090660 0.808851 0.580982
21.136337 -0.492513 -0.091014 -0.015199 0.610274 0.792045
21.552235 -0.350653 -0.247010 -0.157159 0.935177 0.317403
22.627075 -0.118883 -1.197004 0.273712 0.952763 0.131621
23.628141 -1.712305 1.009954 0.005833 -0.299951 0.953937
24.141052 -0.086914 -1.009003 -0.994040 -0.009830 0.108573
24.281040 -0.068932 -1.170002 0.995272 -0.058977 0.077172
24.572077 -0.131870 -0.582004 -0.580764 0.292982 0.759523
25.201130 -0.228774 -0.452007 -0.445281 0.159447 0.881080
25.245155 -1.844181 0.005950 -0.801487 -0.008953 -0.597944
25.742020 -1.678344 0.002953 -0.128081 0.808107 -0.574942
25.598476 -0.823187 0.003975 -0.575853 0.007263 0.817521
25.695099 -0.180821 0.002994 -0.432292 0.063161 0.899519
25.062149 -1.821202 0.285950 0.993956 -0.013018 0.109007
25.316069 -1.720302 0.286952 -0.586559 0.778590 -0.223038
25.680975 -1.604416 0.166955 -0.195610 0.935232 -0.295090
25.991152 -0.275728 0.165991 -0.429954 0.040343 0.901949
25.204145 -1.824196 0.902950 0.958206 -0.045954 -0.282365
25.741039 -1.701317 0.916952 -0.294318 0.904215 0.309472
26.447916 -1.558463 -0.003045 -0.031099 0.755141 0.654825
27.117867 -1.513507 -0.008044 -0.095222 0.992927 0.070919
27.753815 -1.461559 -0.013043 -0.009248 0.987490 0.157408
26.272024 -1.713308 0.472952 -0.072398 0.997067 0.024825
26.563965 -1.639382 0.290953 -0.076533 0.996608 0.030246
27.247919 -1.604416 0.482953 -0.084258 0.995897 0.033011
27.789867 -1.548471 0.487954 0.150776 0.986409 0.065293
27.122871 -1.522498 0.163956 -0.075217 0.995139 0.063569
27.891821 -1.476543 0.162956 -0.009248 0.987491 0.157408
26.013363 -0.643364 0.165980 -0.295293 0.006428 0.955385
26.534353 -0.636371 0.289980 -0.173984 0.049215 0.983518
26.533258 -0.469536 0.289985 -0.173984 0.049215 0.983518
26.865095 -0.179822 0.290994 -0.118060 0.113589 0.986488
26.474968 -1.636382 0.811953 -0.073047 0.997122 -0.020280
26.728935 -1.598420 0.943954 -0.085012 0.995711 -0.036507
27.476883 -1.557460 0.964954 -0.059214 0.998245 0.001153
27.866856 -1.531485 1.152955 0.077794 0.993587 -0.082051
28.994411 -2.488551 -0.023069 0.035274 0.994177 -0.101821
29.480358 -2.442595 0.160932 0.944667 -0.313779 0.095638
29.671328 -2.409629 -0.212068 -0.328724 0.149609 0.932501
28.524790 -1.458562 -0.019044 -0.128435 0.823069 0.553229
28.791769 -1.433586 0.161957 -0.174460 0.942993 0.283422
29.496744 -1.421598 0.160957 0.226666 0.679828 -0.697464
28.312273 -2.222807 0.639938 -0.391271 0.058239 0.918431
29.190409 -2.499537 0.502931 0.069404 0.996592 0.044585
29.666342 -2.424610 0.659932 -0.772295 0.481283 -0.414641
28.289814 -1.486532 0.492956 0.066708 0.995226 0.071238
29.279762 -1.445573 0.502956 -0.043579 0.998928 -0.015598
28.866430 -2.503530 1.004931 0.011622 0.997878 0.064070
29.370375 -2.454578 1.017932 0.606130 -0.562449 0.562368
28.577806 -1.486531 0.994956 -0.125782 0.880309 -0.457423
28.891787 -1.465552 0.866956 -0.206456 0.978433 -0.006690
29.583735 -1.406610 0.882957 -0.157808 0.964511 0.211698
29.883726 -1.406611 0.662957 -0.059644 0.996723 -0.054648
28.781427 -2.489542 1.185932 -0.004557 0.999088 -0.042450
29.289370 -2.439591 1.202932 0.385395 -0.382271 0.839845
28.358805 -1.469547 1.168956 0.035587 0.761372 -0.647337
29.209751 -1.420595 1.197957 -0.030981 0.621012 0.783188
29.930700 -1.360655 1.221958 -0.102863 0.972218 -0.210264
30.653246 -2.341695 -0.036067 -0.215191 0.146920 0.965457
30.658691 -1.376643 -0.036043 -0.116427 0.755612 -0.644589
31.153641 -1.303715 0.157959 -0.121860 0.990803 -0.058823
31.375246 -2.387648 0.524931 -0.502322 0.054198 0.862980
30.277737 -1.442577 0.301956 -0.070708 0.996431 -0.046111
30.815685 -1.371647 0.303957 -0.123552 0.989977 -0.068422
31.287636 -1.296721 0.523959 -0.104013 0.992501 -0.064210
30.602167 -0.355649 0.515988 -0.306835 -0.255972 0.916695
31.382214 -2.330701 0.924932 -0.161579 0.686099 -0.709338
30.364683 -1.347669 0.900958 -0.097183 0.990893 -0.093197
31.005630 -1.277738 0.914960 -0.125275 0.989088 -0.077534
31.362604 -1.238776 1.070961 -0.135450 0.968217 -0.210261
31.865574 -1.200815 0.692962 -0.082609 0.995262 -0.051272
30.686090 -0.191811 0.674994 -0.306835 -0.255972 0.916695
31.371096 -0.208794 0.922993 -0.256171 -0.271950 0.927588
30.583649 -1.293721 1.243960 -0.137951 0.984575 -0.107618
31.266600 -1.223790 1.266961 -0.039640 -0.474368 0.879434
32.077587 -1.239779 -0.047039 -0.087099 0.995165 -0.045384
32.586536 -1.157859 0.155963 -0.071005 0.997094 -0.027608
32.820538 -1.165852 -0.053037 -0.070104 0.997428 -0.014893
33.411488 -1.080935 0.154965 -0.071556 0.997115 -0.025324
32.087585 -1.228788 0.531961 -0.081120 0.995533 -0.048309
32.230583 -1.233783 0.307961 -0.081119 0.995533 -0.048309
33.055534 -1.161855 0.310963 -0.070104 0.997429 -0.014893
33.925484 -1.083931 0.549965 -0.220944 0.791376 0.570006
32.476532 -1.132881 0.947964 -0.065948 0.997508 -0.025073
32.708527 -1.130884 0.705964 -0.065144 0.997553 -0.025370
33.379505 -1.111902 0.968964 -0.073454 0.997158 -0.016759
32.063549 -1.153860 1.293963 0.007529 0.986800 -0.161767
32.944523 -1.132881 1.323963 -0.068093 0.997381 -0.024381
33.840473 -1.056956 1.353965 -0.065279 0.997700 -0.018245
34.221458 -1.042972 0.314966 -0.127105 0.365284 0.922178
34.184452 -1.029983 0.986966 -0.127105 0.365285 0.922178
42.838493 -1.365654 1.385953 0.122241 0.254174 0.959402
43.440437 -1.248769 1.402957 0.018443 0.141478 0.989770
43.945408 -1.178838 1.209959 -0.099403 0.986802 -0.127828
43.383427 -1.210806 1.676958 0.018443 0.141478 0.989770
45.076412 -1.213805 0.893958 -0.099403 0.986802 -0.127828
45.156357 -1.073943 0.894962 -0.099403 0.986803 -0.127827
44.551388 -1.140876 1.432960 -0.099403 0.986802 -0.127828
45.000359 -1.065950 1.232963 -0.099403 0.986802 -0.127828
45.778339 -1.029985 1.466964 -0.096152 0.987456 -0.125245
44.561378 -1.102913 1.715962 -0.099403 0.986802 -0.127828
45.765324 -0.989025 1.756965 -0.087809 0.990815 -0.102839
46.302361 -1.106911 0.674961 -0.083063 0.992367 -0.091154
46.442310 -0.960055 0.913966 -0.083063 0.992367 -0.091154
47.333313 -0.982034 0.685965 -0.084963 0.992740 -0.085144
47.839264 -0.839174 0.935970 -0.084888 0.993647 -0.073889
46.278309 -0.950064 1.262966 -0.083062 0.992367 -0.091154
47.082291 -0.912101 1.502968 -0.081951 0.992358 -0.092248
47.646259 -0.827185 1.293970 -0.084888 0.993647 -0.073889
47.053276 -0.868144 1.799969 -0.081951 0.992358 -0.092248
48.282265 -0.850164 0.694970 -0.084888 0.993647 -0.073889
49.258236 -0.787225 0.956972 -0.084888 0.993647 -0.073889
49.700214 -0.718293 0.708974 -0.086962 0.613481 0.784907
48.474266 -0.863150 1.540969 -0.084888 0.993647 -0.073889
49.121231 -0.775237 1.326972 -0.084889 0.993647 -0.073889
48.466251 -0.817195 1.847971 -0.078757 0.994377 -0.070786
49.957203 -0.685325 1.898975 -0.084889 0.993647 -0.073889
57.710190 -0.746266 1.085972 -0.041882 0.932146 -0.359653
57.732185 -0.725286 1.522973 -0.041882 0.932146 -0.359653
57.715172 -0.670340 1.794975 -0.041882 0.932146 -0.359653
57.662075 -0.308696 1.792988 -0.041882 0.932146 -0.359653
57.815014 -0.062938 2.163998 -0.041882 0.932146 -0.359653
12.466968 3.784354 -1.159837 0.770355 0.611342 -0.181146
12.854114 3.659465 -1.194845 0.368289 0.929580 0.015631
13.307204 3.664455 -1.155845 0.065772 -0.997730 0.014457
12.447760 4.261923 -1.091807 -0.252959 -0.211906 0.943985
12.694933 3.973177 -1.021826 -0.227920 -0.310225 0.922937
12.962013 3.920217 -0.796829 -0.190235 -0.565364 0.802605
13.255929 4.285879 -0.658806 -0.418666 -0.008885 0.908097
13.493171 3.807312 -0.664836 -0.508795 -0.528413 0.679637
13.759261 3.720391 -0.678841 -0.360323 -0.496419 0.789770
14.154228 3.965155 -0.362827 -0.161302 -0.285285 0.944772
13.942093 4.213929 -0.357811 -0.286700 -0.114046 0.951208
14.525293 3.971147 -0.376826 0.031866 -0.447072 0.893930
14.891348 3.996121 -0.390825 -0.025354 -0.852307 0.522426
13.251784 4.725488 -0.667777 -0.247894 -0.009004 0.968745
13.686875 4.723476 -0.440778 -0.337067 0.026619 0.941104
15.098126 4.812375 -0.500774 0.295609 -0.013595 0.955212
13.917872 4.908306 -0.364766 -0.304552 0.069147 0.949982
14.275138 4.266875 -0.272808 -0.192690 -0.182879 0.964067
14.175973 4.726461 -0.273778 -0.272389 0.052578 0.960750
19.348509 6.813517 -0.451644 0.218853 -0.950032 -0.222581
21.975786 6.950347 -0.395641 0.154305 0.677295 0.719348
22.484833 6.957334 -0.408642 -0.044771 0.985673 0.162619
21.599754 7.244091 -0.388619 0.852661 0.280611 0.440711
21.690762 7.161163 -0.390625 0.974930 0.218420 0.042472
22.785860 7.011281 -0.416639 0.039154 -0.983858 -0.174614
21.621773 7.592782 -0.392594 -0.883369 0.173391 -0.435424
21.729801 7.861544 -0.397574 0.394678 0.452308 0.799779
22.271854 7.900498 -0.411573 -0.374956 0.434286 0.819026
21.579746 6.900392 -0.111643 0.683224 0.728947 0.042920
21.859772 6.877408 -0.115646 -0.110927 -0.978347 -0.174738
22.383821 6.888391 -0.122646 -0.041343 0.982903 0.179421
22.827860 6.947332 -0.128643 0.096849 -0.991750 -0.083977
21.592747 7.130186 -0.112627 0.992064 0.109965 0.060967
21.773767 7.266061 -0.115618 0.971187 -0.091536 0.220037
21.472765 7.769623 -0.114580 0.916869 0.371428 0.146262
21.664772 7.623744 0.025408 -0.941847 0.219506 0.254442
22.532864 7.796577 -0.128582 -0.570141 -0.448676 -0.688207
21.540735 6.875406 0.278355 0.594338 0.800619 -0.075972
21.824764 6.852423 0.279353 0.223947 0.964066 -0.142915
22.266802 6.898372 0.443355 -0.031015 0.988573 -0.147515
22.851858 6.859403 0.282351 0.102069 -0.993441 -0.051550
21.096697 7.285048 0.277385 0.593766 -0.307210 0.743683
21.440729 7.216103 0.278379 0.985937 0.066815 -0.153179
21.649746 7.043251 0.437367 -0.797287 -0.324016 0.509261
21.451756 7.748632 0.279418 -0.963814 -0.099032 0.247497
21.784784 7.736632 0.441416 0.857195 0.507475 -0.087665
21.592739 7.294021 0.727385 0.817592 0.125646 -0.561922
21.863766 7.364951 0.843389 -0.830779 0.059363 0.553428
22.748848 7.384918 0.866388 -0.156152 -0.463665 0.872142
21.797787 7.841530 0.845424 0.750980 0.526754 -0.398197
22.218822 7.796560 0.856419 -0.429102 -0.159396 0.889080
22.445864 8.070311 1.016439 -0.089449 0.085214 0.992339
23.617929 7.107177 -0.139634 0.453026 -0.727976 0.514605
23.978964 7.227067 -0.319626 0.127154 -0.846097 -0.517641
22.747896 7.951437 -0.131571 0.794587 0.354117 -0.493186
22.842859 7.494817 0.869395 -0.112119 -0.453640 0.884104
23.068930 8.213171 1.037447 0.017064 0.147864 0.988860
25.678097 7.430862 -0.355616 -0.010167 0.999477 -0.030693
26.379147 7.445843 -0.509617 -0.008861 0.986091 -0.165970
26.975187 7.441844 -0.690619 -0.090977 0.936428 -0.338859
25.305075 7.528780 -0.483609 -0.010167 0.999477 -0.030693
25.680101 7.552753 -0.492608 -0.002020 -0.997338 -0.072888
26.277147 7.639668 -0.508604 0.022583 0.989173 -0.145006
25.602087 7.400886 -0.167618 0.033331 0.997053 -0.069099
26.348141 7.438843 -0.177617 0.010151 0.987946 -0.154469
25.510084 7.556742 -0.003607 0.033331 0.997053 -0.069100
26.223137 7.632664 -0.008604 -0.020883 0.988515 -0.149670
27.142197 7.477806 -0.529617 -0.097485 0.918317 -0.383654
27.442219 7.476807 -0.705617 0.078773 -0.948008 0.308342
27.928251 7.653634 -0.401606 -0.034049 0.927645 -0.371907
27.956257 7.799497 -0.200597 0.030112 -0.775959 0.630063
28.156265 7.712574 -0.203603 0.030112 -0.775959 0.630064
28.267321 8.461883 0.161449 0.030112 -0.775959 0.630063
34.576698 9.309035 0.320491 -0.547342 0.334143 0.767310
35.088749 9.555806 0.150507 -0.505403 0.614833 0.605431
35.320808 9.911483 -0.082469 -0.454915 0.606077 0.652474
35.139751 9.577783 0.322508 -0.454915 0.606078 0.652474
35.282780 9.736636 0.322519 -0.508847 0.525470 0.681876
36.551880 10.156234 0.591545 0.417744 0.234839 0.877691
36.128017 10.960507 0.589603 0.931766 -0.015301 0.362737
36.141815 9.812549 0.777522 0.897313 -0.235607 0.373254
36.450821 9.829525 1.068522 -0.659637 -0.684900 -0.309501
36.170990 10.859588 1.069596 -0.782492 -0.523038 0.337843
36.178944 10.614810 1.067578 0.997698 0.040852 0.054124
36.031029 11.064404 1.067611 -0.904786 -0.069554 -0.420149
36.007805 9.850502 1.472525 0.777967 0.224170 0.586955
36.078869 10.211175 1.239550 0.789545 0.124932 0.600841
36.007984 10.866580 1.242597 -0.676574 -0.555678 0.483186
36.403969 10.736692 1.252586 -0.963262 -0.081035 0.256045
35.917042 11.172300 1.481619 -0.689852 -0.275642 -0.669422
36.195026 11.072387 1.489611 0.611580 0.717886 -0.332581
35.877121 11.531979 1.484646 0.459548 -0.426157 0.779234
37.649010 10.700733 0.146580 0.109129 -0.710639 -0.695042
37.565926 10.248138 0.601548 -0.013091 0.465025 0.885201
36.452991 10.810638 0.591591 -0.659087 -0.501962 -0.560035
37.072987 10.678750 0.597580 0.325688 0.103012 0.939849
37.687008 10.716714 0.330581 0.362972 -0.425873 0.828784
37.220043 10.974480 0.599601 0.272656 -0.278892 0.920803
38.303108 11.151311 0.333610 0.112760 -0.967704 0.225465
36.614887 10.187200 0.786547 0.622201 0.201415 0.756504
36.728935 10.467942 0.789566 0.660185 0.149841 0.736006
37.905018 10.799621 1.106586 0.228914 -0.971440 0.062468
36.288094 11.331161 1.074630 -0.642893 0.193660 -0.741070
36.464176 11.693829 1.261656 0.375133 -0.256908 0.890659
36.464291 12.164403 1.509691 0.283498 -0.237183 0.929179
36.834324 12.260317 1.275697 0.390853 -0.351774 0.850581
38.770145 11.284188 0.144618 -0.268388 0.269308 0.924901
38.962055 10.837573 1.129586 -0.392061 0.250446 0.885192
39.261101 11.054372 1.137600 -0.224839 -0.572473 0.788493
39.680191 11.442019 0.836626 -0.271129 -0.551636 0.788788
39.496201 11.543915 1.601634 -0.192287 -0.489186 0.850720
45.480728 13.397185 0.133748 -0.262767 -0.024611 0.964545
44.816692 13.272303 0.354741 0.134688 -0.103647 0.985453
45.311710 13.341234 0.356745 -0.246560 -0.011579 0.969058
44.999649 13.120432 0.681730 -0.285913 -0.002760 0.958251
46.240669 13.123430 -0.172274 0.299109 0.069924 0.951654
46.410603 12.876643 0.359707 0.218596 0.066980 0.973514
12.334582 4.696547 -1.177778 -0.896376 0.227596 -0.380406
12.419509 5.030256 -1.115755 -0.695194 0.698188 0.170993
12.643542 5.113174 -0.971749 -0.550647 0.569761 0.610050
12.806620 4.954302 -0.810761 -0.436758 0.214245 0.873694
12.844612 5.015248 -0.814757 -0.422261 0.157442 0.892697
13.916671 6.304134 -1.112664 -0.130871 0.985391 0.108984
14.395769 6.288126 -1.059667 -0.079590 0.956951 0.279123
13.379739 4.996246 -0.604759 -0.457125 0.045894 0.888218
13.404560 6.140276 -0.630675 -0.077881 0.968181 -0.237823
13.970675 6.259152 -0.565668 0.062155 -0.754372 0.653498
14.433769 6.278119 -0.586668 -0.077993 -0.676132 0.732641
13.912652 6.478972 -0.478651 0.023666 -0.616444 0.787043
14.770840 6.387033 -1.182661 -0.008862 0.998862 -0.046860
15.335940 6.413985 -1.023661 0.071550 -0.956186 -0.283882
15.771019 6.339033 -0.967668 -0.109967 0.880729 0.460677
15.413954 6.522896 -1.237653 0.257152 -0.958965 0.119413
15.722008 6.485915 -1.163657 0.117258 -0.871801 -0.475618
14.851852 6.240137 -0.605672 -0.024902 0.899029 -0.437181
15.411955 6.277088 -0.631671 0.010274 0.983376 -0.181287
15.857033 6.257092 -0.652674 -0.102589 0.944965 -0.310671
16.310104 6.320023 -0.574671 0.017793 0.730408 -0.682779
16.775177 6.318013 -0.593672 0.038377 -0.635292 0.771318
15.124886 6.713725 -0.433637 0.037856 -0.359330 0.932442
15.406937 6.637778 -0.442644 -0.032816 -0.369700 0.928571
15.895024 6.524857 -0.458654 -0.018671 -0.487317 0.873026
16.313095 6.458901 -0.472660 0.000382 -0.596155 0.802869
16.887184 6.473872 -0.492661 0.047718 -0.625269 0.778949
17.431265 6.526813 -0.513659 0.056288 -0.642631 0.764106
17.796316 6.536796 -0.526659 0.069735 -0.609276 0.789886
21.491791 8.004425 -0.392563 -0.854421 -0.314165 -0.413842
21.926867 8.303159 -0.545542 0.292688 -0.086172 0.952317
21.618868 8.537966 -0.539523 -0.573595 0.359984 -0.735799
21.905884 8.452031 -0.546530 0.620502 -0.575647 0.532549
21.531027 9.455197 -0.547450 0.269750 -0.676751 -0.685014
21.907978 9.074498 -0.413482 0.574010 0.645521 0.503801
21.087048 9.690028 -0.690428 -0.176546 0.027977 0.983895
21.533115 9.843873 -0.412418 -0.826095 -0.078462 -0.558042
21.887083 9.594064 -0.418440 0.467479 0.332057 0.819269
21.527809 8.174271 -0.116550 0.894306 -0.416031 -0.164727
21.735846 8.346112 0.022462 0.966662 -0.169575 -0.191855
21.474842 8.502989 -0.117525 -0.877402 -0.283294 0.387182
21.709871 8.571919 0.022480 -0.697205 0.694702 0.176905
21.610003 9.352267 -0.124458 0.820198 0.559177 -0.120818
21.861006 9.272321 0.019534 -0.087736 -0.778018 -0.622085
21.467077 9.733957 -0.124427 0.960930 0.131620 0.243494
21.730042 9.486152 -0.126448 0.600653 0.478610 0.640428
21.434801 8.240206 0.279455 0.749310 -0.562365 0.349686
21.650826 8.307137 0.442460 -0.763266 0.550106 0.338833
22.182865 8.263159 0.568454 -0.382952 0.376453 0.843582
21.615854 8.517964 0.170476 0.925610 -0.015112 -0.378178
21.794893 8.668830 0.170487 0.925648 -0.259321 -0.275550
21.500969 9.273321 0.444536 0.673166 0.386803 -0.630262
21.784977 9.194377 0.446528 0.281572 0.950814 -0.129110
21.481070 9.723953 0.281573 0.997804 0.051831 0.041243
21.792107 9.796871 0.571577 -0.792701 0.015949 0.609402
21.636791 8.036366 0.734439 -0.919857 0.149150 0.362791
21.868816 8.100301 0.850443 0.034744 0.443003 0.895847
21.551983 9.359236 0.854542 0.845885 0.286406 -0.449944
21.724970 9.215353 0.746530 0.697597 0.667519 0.260340
21.430040 9.667984 0.855568 0.634387 0.322834 0.702375
22.614008 8.913611 -0.428498 0.400784 0.556890 -0.727493
22.211018 9.159416 -0.421477 -0.022501 0.089125 0.995766
22.280172 9.849836 -0.430422 0.080001 0.184297 0.979609
22.196199 9.979733 -0.429411 -0.149008 0.017853 0.988675
22.443050 9.257317 -0.134470 0.230445 0.969114 0.087822
22.295168 9.828850 -0.305423 0.038651 0.426312 0.903750
22.632000 8.930573 0.453503 -0.078096 0.359827 0.929745
23.242004 8.616836 0.168477 0.939250 0.293134 -0.178553
22.361023 9.190361 0.452525 0.079796 0.904501 -0.418941
22.661037 9.148386 0.454520 0.528438 0.847154 -0.055531
22.221077 9.532074 0.576553 0.592379 0.699756 -0.399285
22.715231 10.039632 0.586591 -0.730459 -0.518737 -0.444231
22.853964 8.611835 0.765478 -0.071734 0.319260 0.944948
22.369026 9.254290 1.028530 0.274764 -0.557869 0.783126
22.662048 9.237303 0.766527 -0.520070 -0.825617 -0.218823
22.014078 9.637981 1.022563 -0.383270 -0.084267 0.919784
22.224144 9.854793 1.031579 -0.506856 -0.187625 0.841364
21.926182 10.095606 1.026601 -0.388810 -0.009623 0.921268
24.457436 10.326362 -0.645395 0.111371 -0.386684 0.915463
24.919430 10.199451 -0.657408 0.244399 -0.192500 0.950375
25.144438 10.188449 -0.502410 0.064777 -0.425930 0.902434
25.101427 10.172456 -0.173411 -0.098112 -0.544144 0.833236
24.404284 9.764807 0.473560 0.346453 0.303366 0.887659
24.447334 9.970634 0.290576 0.244859 -0.325660 0.913231
24.895802 11.548306 0.293703 0.084241 -0.621709 0.778705
27.508801 11.153551 -0.416345 0.569147 0.821989 -0.020140
27.759796 11.103586 -0.421350 0.569147 0.821989 -0.020140
27.134939 11.655153 -0.740302 0.569148 0.821989 -0.020140
27.152906 11.554231 -0.564311 0.569148 0.821989 -0.020140
27.474802 11.190511 -0.027342 0.569148 0.821989 -0.020140
27.757814 11.198489 0.160657 0.569148 0.821989 -0.020140
27.697792 11.140536 0.301653 0.569148 0.821989 -0.020140
26.618950 11.791031 0.299712 0.584891 0.810293 -0.036434
26.287083 12.243657 0.869752 0.075921 0.899021 -0.431275
34.885826 13.905949 0.587836 -0.223082 0.071787 0.972153
36.753120 14.729176 1.110892 -0.052994 0.946773 -0.317509
35.999077 14.615292 1.276887 -0.091422 0.841354 -0.532697
36.638123 14.741164 1.294893 -0.052994 0.946773 -0.317509
37.384163 14.846056 1.125897 -0.006423 -0.979115 0.203204
37.664078 14.616244 1.129877 -0.296271 -0.257060 0.919861
38.374001 14.431371 1.596858 -0.296271 -0.257060 0.919860
37.431137 14.787099 1.315892 -0.047911 -0.551003 0.833127
37.906075 14.631219 1.325877 -0.296271 -0.257060 0.919860
37.719296 15.207726 1.585925 -0.209088 -0.118160 0.970732
38.108410 15.504460 1.600947 -0.141225 0.110961 0.983739
39.764446 15.634304 1.383947 -0.044206 0.016637 0.998884
41.495403 15.566312 1.427932 0.054881 -0.329617 0.942518
41.966534 15.934973 1.727959 0.058717 -0.300921 0.951840
51.269951 19.842342 2.069221 -0.038115 -0.064243 0.997206
10.380746 5.851677 -0.617687 0.946725 -0.292193 0.135408
10.436753 5.852654 -0.106687 -0.591756 0.805074 -0.040987
10.354717 5.835655 0.389311 -0.570094 0.821127 -0.027245
10.464781 5.895656 -1.132684 0.943364 -0.309918 0.118387
10.900917 5.924598 -1.018683 0.108785 0.984846 0.135070
11.373066 5.884600 -1.057688 0.691325 0.722418 0.013502
11.722172 5.873595 -1.254690 0.078830 -0.996840 -0.009836
10.946934 5.956579 -1.259681 0.114672 0.992913 0.031220
11.294028 6.047479 -1.058675 0.702902 0.697341 -0.140160
12.138263 6.057416 -0.965677 0.097720 -0.980248 -0.171947
12.401330 6.100371 -1.069675 0.123604 -0.963741 -0.236486
11.018941 5.983532 -0.660679 0.244253 0.899607 -0.362004
11.359056 5.870599 -0.677689 0.255035 0.966659 -0.022981
11.792177 5.913544 -0.770687 -0.224096 0.823752 -0.520782
10.898896 6.056481 -0.568673 -0.044883 -0.974062 0.221785
11.296017 6.064447 -0.521674 0.041070 -0.704353 0.708660
11.893188 6.073404 -0.552675 0.067508 -0.654629 0.752930
12.379321 6.041406 -0.649679 0.080321 -0.961150 0.264082
11.075955 5.887582 -0.057687 -0.474572 0.879500 -0.035512
11.056940 5.890565 0.398313 -0.518164 0.854801 0.028677
11.143970 5.909553 0.187315 -0.505252 0.862531 0.027595
11.247987 5.996467 0.499321 -0.513472 0.858015 0.012510
12.961465 6.173285 -1.118671 -0.037248 0.983652 0.176183
13.387559 6.246206 -1.156667 0.065478 -0.987627 -0.142495
12.834432 6.090345 -0.675677 -0.052124 0.948563 -0.312269
13.368531 6.509972 -0.457646 -0.022827 -0.422653 0.906004
12.770426 7.306388 -0.362578 0.028853 -0.942137 -0.333983
12.682398 7.275411 -0.176580 0.046916 -0.944037 -0.326486
12.472306 6.932661 0.533392 0.070197 0.971255 0.227454
12.665359 7.000599 0.428397 -0.001585 0.950231 0.311544
12.527317 6.945642 0.694393 -0.068544 -0.996000 -0.057314
12.216245 7.025604 0.686401 -0.638069 -0.758812 -0.130661
15.510158 8.590214 -0.479486 0.018347 0.019516 0.999641
15.880217 8.601180 -0.491487 0.011578 0.017984 0.999771
18.272696 9.350446 -0.587439 0.781676 0.574025 0.243880
18.179720 9.498332 -0.451426 -0.970320 -0.189508 -0.150216
19.440067 10.259665 -0.643369 0.809445 0.568702 0.146208
18.253670 9.281489 -0.223445 0.813214 0.581818 -0.013068
18.222723 9.497325 -0.330426 0.973943 0.208816 0.088488
19.313097 10.418533 -0.101354 -0.882919 -0.332886 0.331120
18.985048 10.399549 0.537646 0.910232 -0.268816 0.314986
19.014044 10.386550 0.702645 0.841961 -0.416204 0.343331
19.894970 9.802992 -0.505411 0.281641 0.899008 0.335355
20.305006 9.806967 -0.517414 0.105905 -0.983446 -0.147032
19.734011 9.980868 -0.779395 0.526888 0.771527 0.356559
21.515184 10.091681 -0.711397 -0.470949 0.684470 0.556514
19.341190 10.669349 -0.370333 0.987086 0.022321 0.158628
19.886976 9.857935 -0.105407 0.334606 0.782330 -0.525355
20.365009 9.817942 -0.110413 0.174239 -0.874194 0.453239
19.919018 10.007811 0.030606 -0.332768 -0.670312 0.663285
20.481077 10.048746 0.026606 0.161898 -0.533622 0.830082
20.654081 10.013765 0.025602 0.235124 -0.618469 0.749808
21.465149 10.019725 -0.126403 0.952117 -0.172856 0.252180
19.273167 10.633371 -0.102335 0.973043 0.071052 -0.219407
20.738197 10.401447 0.171634 -0.237801 -0.514441 0.823894
21.459221 10.313469 0.448622 -0.855027 -0.117475 0.505102
19.459253 10.854181 0.172683 -0.515287 -0.210699 0.830714
19.900238 10.722246 0.278668 -0.202033 -0.345015 0.916596
20.351196 10.488401 0.171644 -0.030377 -0.300711 0.953232
20.963535 11.362675 0.448716 0.111103 0.967055 -0.229043
20.857573 11.475595 0.448726 0.042123 0.976143 -0.213006
21.461193 10.238521 0.750615 0.915034 0.297558 -0.272346
21.011534 11.370650 0.865716 -0.047331 -0.981135 0.187438
21.009592 11.536518 1.020730 -0.014953 -0.984665 0.173813
21.773224 10.178594 -0.564392 -0.664242 0.586607 0.463330
21.800276 10.398397 0.015627 -0.496368 0.866972 -0.044468
22.188307 10.412367 0.013625 0.981190 -0.178127 -0.074409
21.912325 10.536280 0.014637 0.977787 -0.159645 -0.135819
22.144323 10.477317 0.013631 0.948186 -0.171844 -0.267232
23.092503 10.868958 -0.151342 0.419172 -0.509326 0.751586
23.227509 10.853970 -0.332344 0.424405 -0.459100 0.780454
23.276567 11.045806 -0.155329 0.528024 -0.242440 0.813888
21.914238 10.252501 0.283614 0.402981 -0.914735 -0.029448
21.625326 10.634199 0.574648 0.931383 -0.279043 0.233796
21.980431 10.877995 0.284666 -0.032267 -0.526378 0.849638
22.294430 10.816028 0.285659 0.146754 -0.574869 0.804977
21.947531 11.192742 0.456693 0.155964 0.966392 0.204358
22.337503 11.040839 0.459677 0.310673 0.941568 -0.130127
22.676535 11.065811 0.167677 -0.074268 0.975062 -0.209136
22.126661 11.534459 0.587721 0.376021 0.919628 0.113548
22.667786 11.786233 0.465739 0.805842 0.591927 -0.015558
21.908552 11.282660 0.886701 0.622498 0.540465 -0.566033
22.237494 11.057817 0.891679 0.230866 0.941133 -0.246922
21.870634 11.522470 1.045722 0.641840 0.368939 -0.672254
24.503834 11.695207 0.292718 -0.123052 -0.611415 0.781684
24.572975 12.122833 1.136754 0.107392 -0.657643 0.745636
24.924984 12.098839 0.970749 0.006904 -0.505700 0.862682
26.012119 12.380550 1.183766 -0.041198 -0.841849 0.538139
10.411744 6.193439 -1.144660 -0.863886 -0.183338 -0.469136
10.341724 6.716068 -1.087615 -0.800302 -0.252168 -0.543992
10.292758 7.201743 -1.111572 0.911583 -0.083042 0.402641
10.355713 6.184431 -0.627660 0.814787 0.508002 0.279385
10.363722 6.711054 -0.708616 -0.960740 -0.211079 -0.180065
10.700822 6.619078 -0.508625 -0.370930 0.026149 0.928293
10.304750 7.190732 -0.724573 0.444808 -0.248020 0.860600
10.612784 6.404233 -0.273643 -0.327981 0.440606 0.835641
10.701817 6.275321 -0.274654 -0.241106 -0.297030 0.923927
11.584213 7.861090 0.009478 -0.800604 -0.582402 -0.140859
11.611117 7.315449 0.521429 -0.885758 -0.267143 -0.379562
11.884192 7.302439 0.348427 0.131671 0.906230 0.401760
11.510159 7.730171 0.419466 -0.968069 -0.077805 -0.238304
11.670179 7.607242 0.348454 -0.703691 -0.622675 -0.342190
11.578106 7.327437 0.673431 0.798955 0.560982 0.216728
11.945189 7.197498 0.681417 0.384014 0.827994 0.408607
11.454129 7.685198 0.676463 0.919497 0.298312 0.256001
11.676164 7.545272 0.679449 0.503828 0.126693 0.854462
12.093277 7.431353 -0.342564 0.533098 0.789505 0.304118
12.162287 7.369392 -0.343569 0.454094 0.857881 0.240497
11.910291 7.785123 -0.429532 0.496416 0.861310 0.108242
12.146299 7.471326 -0.512560 0.674322 0.656619 0.337850
11.730340 8.203858 -0.432493 0.975406 -0.178179 0.129751
11.949224 7.363402 0.009431 0.414266 0.639553 0.647576
12.340310 7.241461 -0.094581 0.421596 0.837465 0.347720
11.792235 7.690189 -0.089539 0.840956 0.212935 0.497445
12.301282 7.139524 0.351410 -0.659315 -0.463584 -0.591941
10.285858 7.738395 -1.143524 0.991175 -0.015579 -0.131640
10.651953 7.687372 -1.090531 -0.502656 -0.029863 0.863971
10.240976 8.230096 -1.090478 0.979699 0.063758 0.190063
10.358862 7.726367 -0.596526 -0.425084 -0.257293 0.867816
10.334989 8.227058 -0.614479 -0.800230 -0.070751 0.595505
11.870503 8.667534 -0.449452 0.825525 -0.333506 0.455283
11.574288 8.184876 -0.091493 -0.886284 0.008813 -0.463058
11.657353 8.345761 -0.168479 0.909656 -0.147465 0.388303
11.536392 8.593610 0.004544 -0.859301 -0.013669 -0.511288
11.776472 8.657541 -0.176452 -0.861951 0.330305 -0.384630
11.499258 8.183867 0.350507 0.997370 -0.004901 -0.072312
11.644361 8.419700 0.184528 0.990028 -0.002592 0.140850
11.522396 8.646563 0.353549 0.872848 -0.471456 -0.125959
11.640471 8.792451 0.355562 0.835370 -0.533455 -0.132600
11.511272 8.260799 0.688514 0.968882 -0.244091 -0.041065
11.549377 8.594576 0.696544 0.956216 -0.271951 -0.108134
11.702486 8.824405 0.705564 -0.862749 0.460423 0.208987
14.055924 11.224545 0.389769 -0.281998 0.362701 0.888215
14.727876 10.923676 -0.717267 0.708303 0.580435 -0.401749
14.102040 11.379489 -0.602217 0.573072 0.741878 -0.348146
14.409019 11.285489 -0.501229 0.184124 0.970313 -0.156818
14.673945 11.089568 -0.504251 0.618767 0.777038 -0.115493
13.995198 11.689321 -0.498185 0.921780 0.238852 -0.305404
14.224316 11.851188 -0.619172 -0.787827 0.321677 0.525217
14.171975 11.273515 -0.047228 0.153304 0.986137 0.063494
14.492025 11.307441 -0.051228 0.738089 0.575186 0.352684
