ply
format ascii 1.0
element vertex 826
property float x
property float y
property float z
property float nx
property float ny
property float nz
end_header
-1.500275 -24.165466 -0.552785 -0.035073 -0.235609 0.971215
-0.933584 -24.163740 -0.551950 0.060553 -0.360162 0.930923
-0.674002 -24.327185 -0.556907 0.065227 -0.296526 0.952795
-1.717602 -23.953814 -0.703878 -0.417306 0.236569 0.877434
-1.315909 -26.355844 -0.794248 -0.133235 0.755031 -0.642009
-1.916433 -35.665859 -0.268317 -0.225282 0.397918 0.889331
-1.481868 -35.943481 -0.272240 -0.006771 0.396752 0.917901
-1.087816 -35.926556 -0.271366 -0.071752 0.464534 0.882644
-0.579358 -35.722561 -0.268663 0.150734 0.536421 0.830380
-2.444466 -37.595169 -0.062766 -0.731596 0.274324 0.624110
-2.207964 -37.721558 0.176259 -0.738064 0.275154 0.616077
-0.670621 -43.641350 1.717113 0.256716 -0.326205 0.909773
-0.461671 -43.262321 1.703776 0.301738 -0.269430 0.914528
-3.626544 -45.810284 0.386531 0.251006 0.966876 0.046328
-3.952977 -45.424721 0.385341 0.105334 0.983137 -0.149489
-0.042336 -44.836338 0.380795 0.913031 -0.407057 0.026076
-0.016650 -45.145710 0.928012 0.941480 -0.334880 -0.038357
-0.245697 -45.824512 1.501572 0.959398 -0.265072 0.096398
-0.155640 -45.681805 1.282442 0.962765 -0.257644 0.081877
-0.100189 -45.353107 1.488187 0.972241 -0.233116 0.020121
-0.814022 -44.020752 1.730430 0.312204 -0.252852 0.915748
-0.868154 -47.619427 0.392058 -0.924201 0.329087 0.193791
-0.710948 -47.123875 0.389652 0.937116 -0.347172 0.035852
-0.557262 -46.676365 0.388282 -0.899287 0.433601 -0.057210
-2.997339 -46.072742 0.386546 0.358821 0.932876 -0.031461
-2.432215 -46.280956 0.387538 0.566717 0.817350 0.103785
-2.073840 -46.367332 0.387498 0.617971 0.757048 0.212110
-0.335781 -46.361214 0.386988 0.885222 -0.464793 0.018682
-0.190259 -46.205811 0.385833 0.954845 -0.294404 0.039973
-3.926283 -45.939442 0.386708 -0.148476 0.971737 0.183527
-2.997339 -46.072742 0.386546 0.358821 0.932876 -0.031461
-0.846654 -47.797977 0.725182 -0.945076 0.313960 0.090892
-2.614717 -47.366600 0.722378 0.776104 0.614446 0.141839
-0.690402 -47.306442 0.719779 0.951943 -0.304206 -0.035536
-3.025492 -46.889618 0.958148 0.697456 0.555386 0.452881
-2.585330 -46.906105 0.958035 0.489392 0.692957 0.529439
-2.214436 -46.735516 0.714806 0.964268 -0.147622 0.219987
-0.536045 -46.824928 0.714384 0.920659 -0.389953 -0.018004
-3.986377 -46.107647 0.946846 -0.202007 0.978323 -0.045579
-3.488172 -46.165592 0.709751 0.276486 0.807535 0.521002
-3.063165 -46.370003 0.949781 0.623931 0.678452 0.387832
-0.314459 -46.520779 0.711098 0.887533 -0.456331 0.063620
-0.169674 -46.392387 0.709962 -0.902641 0.423373 -0.077421
-3.905314 -45.956974 0.707715 -0.053607 0.906419 0.418964
-3.330440 -46.043770 0.944619 0.197222 0.916823 0.347186
-3.187678 -46.011467 0.707555 0.209261 0.820936 0.531295
-0.781447 -47.775730 1.557147 0.954207 -0.287667 -0.082078
-0.683523 -47.623943 1.328008 0.955754 -0.288292 -0.058489
-2.534170 -47.075153 1.539144 -0.772369 0.317670 -0.550029
-0.625137 -47.290207 1.542748 0.951915 -0.302692 -0.047275
-3.265127 -46.977657 1.538279 0.491792 0.435741 0.753837
-3.017666 -46.883270 1.314141 0.404334 0.669847 0.622751
-2.570765 -46.771687 1.309934 0.111324 0.993622 0.017933
-0.450605 -46.627659 1.304216 0.952379 -0.304517 0.015638
-3.879356 -46.408081 1.524035 0.024364 0.645339 0.763508
-3.490695 -46.330170 1.301871 0.214858 0.822711 0.526292
-2.938010 -46.486282 1.523830 0.381030 0.602404 0.701375
-0.301149 -46.153210 1.293827 0.955389 -0.284933 0.077747
-3.104902 -47.437771 1.852568 0.406447 0.604475 0.685136
-3.871607 -46.814762 1.833329 0.180717 0.692348 0.698567
-3.428853 -46.789131 1.831188 0.309610 0.440088 0.842890
-2.929134 -47.011963 1.837210 0.288673 0.213178 0.933393
-2.595053 -46.311543 1.812607 0.412567 0.530487 0.740521
-1.360607 -49.215328 0.398360 0.921013 -0.389185 0.016440
-1.047184 -48.958233 0.397083 0.955628 -0.294442 -0.008927
-1.428357 -49.829762 0.747826 0.923468 -0.382954 0.023513
-1.338221 -49.382858 0.742476 0.913681 -0.406430 -0.001226
-1.181032 -49.309120 0.994376 0.935933 -0.350065 0.038529
-1.333998 -49.630360 1.375654 0.862686 -0.479221 0.161619
-1.165298 -49.088684 1.363212 0.894621 -0.431990 0.114184
-1.103760 -48.772900 1.584965 0.946746 -0.310809 0.084086
-0.941609 -48.274303 1.571555 0.967525 -0.252723 0.005104
-2.409068 -49.918682 1.936173 0.251369 -0.040155 0.967058
-1.976811 -49.616570 1.609830 0.088115 0.373545 0.923418
-1.594052 -49.758759 1.613823 -0.023238 0.975549 -0.218549
-2.283588 -49.526646 1.607852 0.088115 0.373545 0.923418
-1.224670 -49.331871 1.914406 0.800531 -0.530620 0.278556
-1.058629 -48.824234 1.896989 0.907009 -0.369889 0.201289
-2.165510 -51.806442 0.408474 0.916919 -0.345625 0.199506
-1.823350 -51.330002 0.407029 0.947954 -0.316808 -0.031876
-1.971374 -51.759026 1.034384 -0.848824 0.478970 -0.223798
-1.798262 -51.468491 0.766123 -0.947697 0.317729 0.030323
-1.628895 -51.206795 0.762884 0.950815 -0.308582 -0.026977
-1.435061 -50.070648 1.007003 0.936824 -0.306900 0.167847
-1.959343 -51.777615 1.427394 -0.889607 0.299924 -0.344448
-1.777760 -51.231792 1.413945 0.767888 -0.352210 0.535066
-1.600246 -50.676018 1.400491 0.974809 -0.151639 0.163565
-1.425592 -50.133274 1.388046 0.855694 -0.083978 0.510622
-2.719607 -51.325844 1.986283 -0.752647 0.176870 -0.634223
-2.604652 -50.665668 1.962771 0.246789 -0.124761 0.961005
-2.571195 -53.445587 0.415780 0.950742 -0.247194 0.187046
-2.376228 -53.586346 0.788826 0.943995 -0.271166 0.187998
-2.154359 -52.261871 1.042801 0.916919 -0.345625 0.199506
-2.530524 -53.563389 1.469854 -0.923810 0.223170 -0.311078
-2.336464 -52.970421 1.455368 0.891165 -0.250850 0.378020
-2.144648 -52.350479 1.440863 0.879145 -0.196400 0.434201
-3.110894 -52.492840 2.027241 -0.788957 0.214612 -0.575750
-2.840031 -54.437061 0.798576 -0.922227 0.217608 -0.319600
-2.656568 -54.093979 1.072275 -0.923810 0.223170 -0.311078
-2.840705 -54.693550 1.496763 -0.916143 0.188867 -0.353569
-4.620595 -67.162392 2.536319 0.159949 0.387060 0.908075
-6.265706 -72.761566 2.733842 -0.404554 -0.096118 0.909449
2.128595 -13.751843 -1.570459 0.950375 -0.307320 0.048394
2.230934 -13.572147 -1.645623 -0.299372 0.941617 -0.154056
2.142108 -13.818582 -1.341414 0.883034 -0.387152 -0.265265
2.369631 -13.564964 -1.402674 0.146426 0.895024 -0.421297
2.255206 -13.523810 -1.395666 0.090948 0.978712 0.183986
2.361300 -13.425983 -1.302773 -0.114073 0.954777 -0.274569
1.696152 -15.155181 -1.662296 0.957136 -0.279368 0.076451
1.766457 -14.941609 -1.637475 0.946128 -0.322528 0.028601
1.838470 -14.598079 -1.671748 -0.873254 0.469078 -0.131882
1.965852 -14.342078 -1.641976 0.932724 -0.360184 0.017142
1.659237 -15.241161 -1.197222 0.961430 -0.254282 -0.104847
2.266690 -15.403183 -0.935300 0.806741 -0.498496 0.317285
2.570199 -15.305904 -0.931470 0.519827 0.852156 -0.060078
1.740098 -14.889505 -1.166504 0.960854 -0.252678 -0.113635
2.037485 -14.679106 -1.062753 0.374966 0.833170 0.406482
2.521096 -14.747505 -1.163861 0.267073 0.788333 0.554258
1.981378 -14.312731 -1.298002 0.944380 -0.322303 -0.065324
2.228210 -15.424425 -0.859272 -0.871469 0.477731 0.110978
2.515176 -15.260198 -0.743485 0.271276 0.889559 0.367551
2.634649 -15.320695 0.192520 -0.297356 0.076770 0.951675
1.565935 -17.688095 -1.531412 0.480155 0.873289 -0.082565
2.404903 -17.793079 0.275396 -0.243838 -0.036334 0.969135
2.467838 -17.430626 0.274112 -0.234290 0.048000 0.970981
3.027680 -17.264360 0.395809 -0.230100 0.050220 0.971870
2.573092 -16.831888 0.271641 -0.233195 0.047152 0.971286
2.434080 -16.106083 0.192158 -0.254078 0.057252 0.965488
2.499168 -15.865621 0.192961 -0.284448 0.072118 0.955975
3.156620 -18.663853 -0.625213 0.330537 0.943611 0.018518
3.166049 -18.618561 -0.275249 0.260406 0.885280 -0.385316
3.115099 -18.484810 -0.044330 0.238612 0.935491 -0.260616
3.165287 -18.552069 0.506703 0.305753 0.894033 -0.327445
2.353084 -18.279444 0.277767 -0.235224 -0.489332 0.839776
2.918683 -17.784081 0.401223 -0.239162 0.058582 0.969211
2.567227 -21.722471 -1.134796 0.828806 -0.550850 -0.098211
2.762296 -21.370920 -1.115114 -0.816691 0.477861 0.323519
2.892949 -21.335892 -1.114182 0.902940 -0.389742 -0.181108
3.022637 -20.896830 -0.976543 0.974935 -0.220341 -0.030836
3.180603 -20.405653 -0.950952 0.888452 -0.448663 0.096721
2.697584 -21.765167 -0.756807 -0.596407 0.587067 0.547404
2.835496 -21.762074 -0.756853 -0.767079 0.452540 0.454750
2.745694 -21.504879 -0.870012 -0.646359 0.617848 0.447755
3.001311 -21.463787 -0.745124 0.887237 -0.447664 -0.111393
2.993978 -20.914797 -0.595521 0.994834 0.029293 -0.097200
3.142411 -20.359785 -0.698973 0.938390 -0.273510 0.211228
3.110684 -19.856905 -0.425329 0.999656 0.026240 -0.000399
2.648145 -21.687294 -0.349847 0.940485 -0.320798 0.112147
3.270444 -21.593363 -0.238116 0.603484 0.311238 -0.734124
3.356962 -21.713692 -0.241056 0.650555 0.357176 -0.670226
3.004209 -21.156450 -0.228348 0.775919 0.540309 0.325601
3.293123 -21.172136 -0.080430 0.965339 0.149706 0.213795
2.846069 -20.610624 -0.071695 0.878942 -0.211862 -0.427289
3.059567 -20.727964 -0.073678 0.840995 0.129172 -0.525397
3.211298 -20.311769 0.057970 0.968786 -0.221073 -0.112160
3.111047 -19.997808 -0.309227 0.993968 0.043403 -0.100717
2.776842 -21.053719 0.545650 0.305600 0.935101 -0.179432
3.049096 -21.089598 0.546589 0.124684 0.991077 -0.047128
3.429844 -21.157692 0.548515 0.064705 0.930670 -0.360092
2.936507 -21.037712 0.188587 0.274534 0.956659 0.097136
3.541619 -21.017879 0.546377 -0.273498 -0.064551 0.959704
3.506259 -21.160015 0.711492 -0.327895 -0.019400 0.944515
3.644532 -20.786057 0.703175 -0.351520 0.130387 0.927056
2.270544 -23.678106 -1.534279 0.866172 -0.295689 0.402882
2.168012 -23.544880 -1.408344 0.868061 -0.398115 0.296606
2.377762 -23.269207 -1.505610 0.898572 -0.315552 0.304952
2.490585 -22.619270 -1.459119 0.994080 -0.101500 -0.038754
2.538107 -22.401882 -1.444293 0.996161 -0.087539 0.000797
2.633608 -22.015110 -1.416605 -0.866762 0.251976 -0.430385
2.152536 -23.797815 -1.131155 0.976801 -0.211126 0.035857
2.260347 -23.346907 -1.106517 0.968794 -0.247624 -0.010984
2.347349 -23.310268 -1.230571 0.912033 -0.347448 0.217887
2.429184 -22.844507 -1.079936 0.956574 -0.290036 0.029073
2.523060 -22.386929 -1.332299 0.959115 -0.138788 0.246651
2.200324 -23.820120 -0.701154 -0.922113 0.158100 0.353146
2.408390 -23.579285 -0.537395 -0.777700 0.208264 0.593135
2.293945 -23.235338 -0.679608 -0.916133 0.193765 0.350936
2.371784 -23.279696 -0.681601 -0.892931 0.188756 0.408713
2.539131 -22.728228 -0.512055 -0.409173 0.460716 0.787603
3.046196 -22.820272 -0.667150 -0.102700 0.348428 0.931692
2.487918 -22.044847 -0.767536 -0.720396 0.212788 0.660114
3.034070 -22.390293 -0.503460 -0.290091 -0.005037 0.956986
2.278056 -23.548267 -0.395376 0.961033 0.257383 -0.100846
2.485524 -23.758553 -0.401289 -0.774949 0.306400 0.552786
2.653963 -23.109287 -0.523815 -0.378254 0.242050 0.893497
2.998834 -23.366425 -0.393738 -0.314167 0.290111 0.903955
2.627348 -23.027414 -0.383866 -0.456777 0.231169 0.859020
2.975247 -22.776564 -0.261159 -0.102700 0.348428 0.931692
3.372140 -22.150606 -0.363743 -0.486201 -0.137964 0.862887
3.709382 -28.898621 -0.707939 -0.684450 0.147116 0.714063
3.792126 -28.830969 -0.706015 -0.684450 0.147116 0.714063
2.658910 -28.476086 -0.520913 -0.417392 -0.139727 0.897920
4.911199 -29.384142 1.047029 -0.289413 0.100718 0.951891
4.195672 -28.696766 0.888759 -0.289413 0.100718 0.951891
4.925398 -29.417908 1.238050 -0.289413 0.100718 0.951891
5.529707 -33.795929 1.011043 -0.564166 0.085127 0.821261
3.611636 -36.837387 0.348867 0.259605 0.965433 0.023348
4.034152 -36.989891 0.349844 0.307591 0.951312 0.019843
4.063558 -37.060345 0.800886 0.294666 0.955494 -0.014227
4.547383 -37.184414 0.803823 0.311810 0.949968 0.018294
4.969217 -37.364166 0.613820 0.328365 0.944497 -0.010056
5.341701 -37.474236 0.615781 0.290369 0.956146 -0.038351
3.642216 -36.926823 0.797922 0.271860 0.962313 -0.006690
3.881133 -36.987843 0.798891 0.303090 0.952845 -0.014949
4.140379 -37.108242 1.497897 0.283466 0.958767 0.020296
4.540706 -37.220154 1.264851 0.290552 0.956788 0.011672
5.030589 -37.353245 1.269792 0.270842 0.962602 0.006551
5.465906 -37.490829 1.275754 0.300049 0.953905 0.006037
3.598627 -36.948711 1.489952 0.286888 0.957807 0.017368
3.812517 -36.985096 1.255911 0.293708 0.955824 0.011684
5.717959 -37.572872 1.278733 0.246356 0.968184 0.043920
5.968919 -37.643948 1.281704 0.246356 0.968184 0.043920
14.441226 -9.921208 -1.404237 0.262502 0.963191 -0.057933
14.116050 -8.176154 -1.103161 -0.827641 0.515990 0.220827
14.687772 -10.089990 -0.256175 0.289937 0.951224 -0.105402
14.475485 -9.975569 -0.037211 0.276714 0.954907 -0.107617
14.706397 -10.058843 0.701805 0.301241 0.953538 -0.004275
14.085727 -9.859139 0.684777 0.256720 0.957930 -0.128317
14.557293 -9.989247 0.696786 0.301928 0.953215 -0.014846
14.613685 -8.823417 0.789129 -0.035551 -0.078445 0.996284
15.045053 -8.892885 0.803116 -0.055981 -0.057223 0.996791
15.500922 -9.032019 0.818139 -0.014759 -0.027488 0.999513
15.357768 -10.579737 -1.396987 0.130033 0.739333 0.660665
15.433948 -10.385513 -1.393108 0.130033 0.739332 0.660665
16.013685 -10.444793 -1.108152 0.301227 0.952236 0.050096
16.137249 -10.565030 -0.535101 0.341902 0.939683 0.009989
15.917681 -10.411901 -0.747158 0.452977 0.891181 0.024639
16.455667 -10.611468 0.055884 0.275828 0.960690 -0.031525
16.842278 -10.698880 -0.070116 0.281702 0.958743 -0.038165
15.115201 -10.183269 -0.173180 0.289898 0.951812 -0.100066
15.481889 -10.282560 -0.051173 0.293650 0.951333 -0.093465
15.994771 -10.455510 -0.191143 0.317829 0.947812 -0.025233
15.937015 -10.469325 0.403872 0.335107 0.941976 -0.019603
16.519360 -10.600295 0.750870 0.280477 0.956544 -0.079724
15.041122 -10.152209 0.710812 0.276460 0.961022 -0.002590
15.569715 -10.299220 0.724825 0.292672 0.956130 -0.012623
15.941751 -10.440360 0.735855 0.308847 0.950188 -0.041910
16.318476 -10.542674 0.745863 0.279448 0.955720 -0.092237
15.736105 -9.135423 0.827167 -0.016668 -0.045819 0.998811
18.156490 -11.568530 -1.273800 0.976972 -0.153871 0.147817
18.222692 -11.358389 -1.120924 0.978526 -0.204486 0.025920
18.506706 -11.192026 -1.281049 0.009396 0.995190 -0.097514
16.994108 -10.721043 -1.406123 0.282730 0.956711 -0.069057
18.164446 -11.570346 -0.621800 0.966327 -0.247453 -0.070567
18.211035 -11.402102 -0.746899 -0.959116 0.246426 0.139179
18.542719 -11.210755 -0.627043 0.105981 0.988435 0.108462
18.211294 -11.569251 -0.352807 0.964405 -0.258130 0.057368
18.189266 -11.297455 -0.239953 -0.791117 0.542147 -0.283215
18.449717 -11.181840 -0.243047 -0.148575 0.977794 -0.147797
17.422373 -10.915573 -0.078069 0.409149 0.910636 -0.057788
18.164375 -11.569074 0.429199 0.991510 0.100383 -0.082652
18.192318 -11.310223 0.428053 -0.955965 0.165650 0.242264
18.382925 -11.191660 0.428966 -0.082690 0.995149 -0.053297
18.252718 -11.122949 0.799944 0.125748 0.809717 -0.573189
18.538708 -11.218359 0.807962 0.170785 0.955235 -0.241576
16.932127 -10.717525 0.762883 0.299487 0.951673 -0.068020
17.551016 -10.920257 0.779918 0.307245 0.935704 -0.173371
17.796957 -10.997768 0.786931 0.280117 0.879593 -0.384515
19.240856 -12.905012 -1.386193 0.977623 0.040849 0.206360
19.195166 -13.313235 -1.111954 0.927083 -0.295129 0.231118
19.291862 -13.181753 -1.237043 0.958741 -0.283928 -0.014147
19.088661 -12.826410 -1.214217 0.733784 0.677207 -0.054338
19.361115 -12.855067 -1.105237 0.978034 -0.208287 0.008172
19.277931 -12.412051 -1.087474 -0.972377 -0.215759 -0.089062
19.454189 -12.506559 -1.222444 0.965842 0.179722 0.186679
19.830452 -11.600378 -0.944981 0.345133 0.930342 -0.123886
20.305573 -11.770396 -1.118944 0.377276 0.916377 -0.133853
19.094673 -11.386765 -1.049012 0.276752 0.960617 0.024960
19.513163 -11.455271 -1.192023 0.250324 0.966389 0.058575
19.009636 -13.307282 -0.684932 -0.817597 0.573162 -0.054968
19.082365 -12.790421 -0.676237 -0.956974 0.066583 0.282433
19.183969 -12.387110 -0.671476 -0.866017 0.486113 -0.117084
19.298279 -12.466724 -0.812447 -0.921211 0.295122 -0.253522
19.612705 -11.565579 -0.668975 -0.175779 0.934207 -0.310418
19.862623 -11.635169 -0.815966 0.401273 0.915395 -0.032120
20.428473 -11.798140 -0.840943 0.447844 0.877526 -0.171419
19.015759 -11.374760 -0.646009 0.274721 0.961234 0.023611
19.009199 -13.255384 -0.274961 -0.736038 0.663642 0.133517
19.336262 -13.128681 -0.280079 -0.897169 0.410427 0.163205
19.226965 -12.922642 -0.275181 0.961136 -0.234509 -0.145684
19.316624 -12.912579 -0.115199 0.990094 0.089868 -0.107882
19.235144 -12.301308 -0.109530 0.884925 -0.465428 -0.016858
19.282135 -12.315260 -0.269529 -0.778312 0.627823 0.008230
19.761608 -11.604228 -0.270972 0.942721 0.093963 -0.320075
20.130381 -11.695550 0.027036 0.261208 0.964191 0.045905
18.962564 -11.333877 -0.254025 0.251336 0.965811 -0.063551
19.629158 -11.362419 -0.266085 -0.854712 0.500288 0.138488
19.021458 -13.297041 0.285061 -0.608916 0.332751 0.720069
19.307190 -13.114561 0.447917 -0.923691 0.277286 0.264399
19.180401 -12.837886 0.284777 0.881760 -0.047933 -0.469257
19.333549 -12.783972 0.445726 -0.877511 0.172617 0.447412
19.226093 -12.424692 0.175539 0.899502 -0.237040 -0.367026
19.429798 -12.459341 0.444533 0.896379 -0.151722 -0.416515
19.677649 -11.586216 0.283028 0.556949 0.830529 -0.005350
19.954679 -11.682592 0.445049 0.365577 0.930771 -0.004367
18.912788 -11.352643 0.433991 0.323978 0.945708 0.025970
19.625603 -11.566223 0.731024 0.660238 0.637482 -0.397118
19.866461 -11.625829 0.736028 0.568439 0.794486 -0.213703
19.021786 -11.391313 0.820999 0.319160 0.947700 0.000992
16.033276 -7.456141 -1.420705 0.324902 0.936307 -0.133293
15.942050 -7.399389 -1.090724 0.279257 0.943668 0.177502
16.438444 -7.595355 -1.574672 0.164878 0.983012 0.080638
17.522068 -7.843790 -1.445639 0.285708 0.955949 0.067328
18.157267 -8.048545 -1.258593 0.356536 0.933015 -0.048623
16.616009 -7.585261 -1.051690 0.268531 0.935955 0.227773
16.929955 -7.664799 -1.164678 0.325683 0.934846 0.141397
17.400297 -7.846735 -1.107629 0.267256 0.952900 0.143373
17.937490 -8.023702 -1.146588 0.297476 0.950479 -0.089984
16.539921 -7.550476 -1.134701 0.289072 0.950003 0.118030
16.656885 -7.727447 -0.715627 0.240494 0.869616 0.431197
17.067945 -7.852706 -0.736600 0.249006 0.888834 0.384669
19.696381 -8.631241 -1.643439 0.898162 -0.438033 -0.037843
19.732073 -8.435238 -1.517530 -0.805928 0.590053 0.048135
19.703072 -8.743583 -1.277388 -0.886946 0.266905 0.376946
19.901577 -8.720611 -1.022413 -0.582628 0.504148 0.637478
19.782295 -8.484921 -1.275512 -0.780295 0.547661 0.302006
20.081598 -8.452012 -1.141547 -0.391039 0.610492 0.688758
21.121954 -8.606092 -1.625548 0.132113 0.989301 0.061891
21.843121 -8.812826 -1.415504 0.428979 0.894613 0.125080
20.555494 -8.390307 -1.431606 0.289935 0.956516 -0.031864
20.486168 -8.809999 -0.913415 -0.308813 0.360910 0.879988
21.198967 -8.628912 -1.369543 0.236582 0.955619 0.175559
21.490898 -8.690507 -1.227535 0.368693 0.911735 0.181119
22.050068 -8.856508 -1.137498 0.393948 0.909135 0.135197
20.653427 -8.406139 -1.054605 -0.091989 0.632378 0.769179
21.040236 -8.470707 -0.932602 0.060439 0.957432 0.282260
21.576912 -9.852283 -0.707017 0.591683 -0.300817 0.747944
20.217508 -9.108495 -0.906259 -0.161012 0.162875 0.973420
21.731054 -9.275260 -0.703292 -0.794617 0.237000 -0.558941
20.874079 -8.570178 -0.796548 -0.098863 0.737161 0.668446
21.791462 -8.862441 -0.699479 0.166927 0.955165 0.244530
21.791462 -8.862441 -0.699479 0.166927 0.955165 0.244530
21.083370 -9.321095 -0.393225 -0.519008 0.236310 0.821455
21.398647 -9.127028 -0.279336 -0.350576 0.329517 0.876650
21.276903 -8.973884 -0.394396 -0.374236 0.432841 0.820120
21.584541 -8.826613 -0.400481 0.173050 0.739325 0.650732
22.212818 -9.028409 -0.294434 0.287428 0.699975 0.653774
23.056158 -9.283142 -1.626377 0.184824 -0.010177 0.982719
22.502943 -9.119894 -0.425412 0.460840 0.591446 0.661678
22.178921 -10.177345 -0.132912 -0.738704 0.136096 0.660147
22.325220 -9.784354 -0.133104 -0.202757 -0.244629 0.948180
24.599215 -9.661852 -1.612309 0.742789 -0.632155 0.220556
24.691132 -9.492718 -1.430386 -0.665491 0.743575 -0.064944
25.150446 -9.473788 -1.643420 -0.114501 0.889703 -0.441949
25.283573 -9.344475 -1.649481 0.689363 -0.202290 0.695598
24.646078 -9.651813 -1.122316 -0.734907 0.600179 0.315749
24.791454 -9.575205 -1.127357 -0.645380 0.695343 0.316202
25.759190 -9.566153 -1.347416 0.310655 0.946335 -0.089128
26.058006 -9.599902 -1.187418 0.276022 0.947388 -0.162074
24.697041 -9.478768 -1.289392 -0.639525 0.755873 0.140229
24.870529 -9.427991 -1.128424 -0.524156 0.816411 0.242348
25.302042 -9.438849 -0.994443 -0.107335 0.951195 0.289323
25.054485 -9.822746 -0.654268 -0.528254 0.363600 0.767296
25.602938 -9.489478 -0.666439 -0.086334 0.967676 0.236959
25.819166 -9.580925 -0.510413 0.036265 0.994498 0.098278
25.070753 -9.516431 -0.826398 -0.342488 0.650431 0.677968
25.602938 -9.489478 -0.666439 -0.086334 0.967676 0.236959
25.825874 -9.526280 -0.854436 0.127430 0.990654 0.048638
25.305054 -11.181416 -0.178684 0.085057 -0.286024 0.954440
25.773607 -9.653481 -0.177381 -0.329130 0.699442 0.634393
25.887201 -9.604732 -0.178407 -0.061573 0.819203 0.570189
25.731146 -10.801257 0.166115 0.150004 -0.201073 0.968023
25.804577 -10.548586 0.165999 -0.343039 0.091660 0.934838
25.895798 -10.258127 0.165868 -0.574510 0.248776 0.779775
26.113644 -9.921914 0.165712 -0.074073 0.486761 0.870389
27.754768 -10.113917 -1.464299 0.526461 0.624517 0.576903
27.889847 -10.160587 -1.113287 0.324501 0.934870 0.143936
26.489281 -9.745087 -1.389382 0.208655 0.975119 0.074870
27.120331 -9.894165 -1.242355 0.211579 0.895801 0.390864
27.342651 -10.923421 -0.408936 0.949523 -0.222733 -0.220899
26.600861 -10.249189 -0.535178 -0.848048 -0.146745 -0.509196
26.518471 -9.792681 -0.529364 0.716004 0.677348 0.168933
27.263861 -11.641591 -0.206615 0.528445 0.693036 0.490354
27.318508 -11.765927 -0.207563 0.993200 -0.094545 0.067932
26.322025 -11.094658 -0.191795 0.217561 0.480574 0.849539
27.292297 -11.203897 -0.204811 0.528445 0.693036 0.490354
27.313192 -11.013906 -0.203895 0.528445 0.693036 0.490354
26.614098 -10.295910 -0.390160 -0.848048 -0.146744 -0.509196
26.544220 -9.753835 -0.188381 -0.766627 -0.497913 -0.405421
25.670607 -11.202160 0.166299 -0.123613 -0.196330 0.972715
26.145004 -11.050833 0.299198 -0.045478 -0.113187 0.992532
26.676991 -11.179051 0.301219 0.009054 0.908762 -0.417216
27.199814 -11.100374 0.302150 0.528445 0.693036 0.490354
26.640831 -10.969172 0.301129 0.194389 0.677793 0.709091
27.500700 -10.973997 0.303076 -0.744340 0.650055 -0.152928
27.818953 -10.173319 0.163722 -0.440066 0.683330 0.582582
26.703594 -9.861168 0.164654 -0.712826 0.152025 -0.684666
28.639307 -13.243971 -0.232983 0.288644 0.957408 -0.007327
27.825960 -12.973567 -0.221045 0.290219 0.956960 0.001085
29.205788 -11.563614 -0.038775 0.356347 -0.173844 0.918039
29.297171 -11.653153 -0.232742 0.533180 0.059334 0.843918
29.143579 -11.328886 -0.036871 0.333126 0.019943 0.942671
29.298441 -11.336853 -0.231877 0.533180 0.059334 0.843918
28.156044 -13.076874 0.161977 0.280968 0.959654 -0.011053
28.420269 -13.184225 0.310007 0.284610 0.958572 -0.011705
28.843227 -13.286620 0.161021 0.284610 0.958572 -0.011705
28.751446 -11.579544 0.307260 0.397901 0.091509 0.912853
28.015322 -11.383718 0.305221 -0.275254 -0.352898 0.894258
28.626179 -11.321945 0.307157 0.372184 0.154544 0.915202
28.968916 -11.352725 0.308149 0.397901 0.091509 0.912853
28.671520 -11.029515 0.307030 0.551613 0.294706 0.780302
28.043026 -13.050855 1.061974 0.291966 0.955932 -0.030815
28.354048 -13.133427 0.686988 0.290351 0.956865 -0.010302
28.690081 -13.230721 1.281007 0.283680 0.958735 -0.018754
28.021917 -13.028933 1.257965 0.290396 0.956433 -0.030108
36.636742 -13.776464 0.333725 0.962022 -0.266406 -0.059500
36.309292 -14.951183 0.608245 0.707812 0.016831 0.706200
35.220196 -16.105244 1.522842 0.612114 0.738065 0.283860
34.829903 -15.954172 1.265802 -0.704543 -0.576979 -0.413176
36.611092 -16.595692 -0.106037 0.143799 0.987376 0.066413
36.597786 -16.715034 0.149020 -0.892243 0.438162 -0.109159
38.000107 -17.122484 0.633102 0.320646 0.947072 0.015485
36.515289 -16.785561 0.824059 0.145722 0.986845 0.070018
37.133499 -16.801357 0.624019 0.202607 0.977672 0.055755
37.642620 -16.950418 0.841050 0.221321 0.975187 0.005237
38.141846 -17.116337 1.362089 0.288798 0.955268 -0.063709
36.576557 -16.677040 1.129004 0.147071 0.987138 0.062674
37.274635 -16.865850 1.337038 0.234989 0.970638 -0.051400
37.549503 -16.908596 1.151037 0.221321 0.975187 0.005237
38.182682 -17.099361 1.628078 0.288798 0.955268 -0.063709
37.438625 -16.906546 1.603045 0.236057 0.970841 -0.041781
39.872723 -17.686169 0.349222 0.274283 0.959621 -0.062425
38.757286 -17.336288 0.146144 0.319709 0.947512 -0.002819
38.834183 -17.515312 0.346221 0.313050 0.949621 -0.014847
39.821545 -17.644339 0.652207 0.269959 0.960472 -0.067933
38.512817 -17.198919 0.854099 0.284948 0.958040 -0.031055
38.840256 -17.355074 0.642147 0.294601 0.954926 -0.036414
39.464085 -17.477247 0.869157 0.271413 0.960445 -0.062285
39.999321 -17.653103 1.415198 0.263246 0.962495 -0.065607
38.452732 -17.171015 1.172091 0.285304 0.956787 -0.056219
39.058083 -17.382732 1.388143 0.270805 0.959610 -0.076248
39.372952 -17.434425 1.194144 0.270336 0.960064 -0.072083
40.039127 -17.630157 1.693185 0.277431 0.959128 -0.055728
39.099903 -17.362772 1.660131 0.275614 0.958023 -0.078931
41.772152 -18.218954 0.355328 0.294457 0.954463 -0.047918
40.759884 -17.928699 0.352269 0.288850 0.955516 -0.059618
41.494663 -18.068693 0.901280 0.285061 0.957384 -0.046439
42.135410 -18.354105 0.676363 0.298970 0.953740 -0.031559
40.451359 -17.764519 0.885216 0.276808 0.959323 -0.055465
40.866871 -17.954479 0.663273 0.288850 0.955516 -0.059618
42.108959 -18.272383 1.475328 0.300138 0.953291 -0.033954
40.348206 -17.714739 1.217201 0.273929 0.960200 -0.054586
41.026623 -17.954292 1.444261 0.285140 0.957501 -0.043446
41.422546 -18.032831 1.242269 0.285062 0.957383 -0.046439
42.185215 -18.338963 1.769353 0.300138 0.953291 -0.033954
41.099464 -17.944273 1.730252 0.285411 0.957342 -0.045139
43.027657 -18.607641 0.360415 0.298970 0.953740 -0.031559
43.240738 -18.675179 0.688430 0.298970 0.953740 -0.031559
43.640694 -18.762585 0.935442 0.298970 0.953740 -0.031559
42.595013 -18.391758 0.918348 0.298970 0.953740 -0.031559
43.237747 -18.682983 1.508434 0.300138 0.953291 -0.033954
43.608601 -18.740641 1.294434 0.300138 0.953291 -0.033954
42.556911 -18.367825 1.269340 0.300138 0.953291 -0.033954
43.321568 -18.671965 1.809423 0.300138 0.953291 -0.033954
50.458191 -21.547642 0.386218 -0.876074 0.479526 0.050484
50.595116 -21.567436 0.769217 -0.876074 0.479526 0.050484
50.692268 -21.240072 1.050066 -0.889517 0.456816 -0.008874
50.793392 -21.091879 0.768994 -0.876807 0.480842 -0.000940
50.988632 -20.991316 1.051938 -0.889517 0.456816 -0.008874
50.605019 -21.557356 1.467212 0.937485 -0.347916 -0.008742
50.714176 -21.231037 1.466061 -0.895467 0.445125 -0.001497
50.982517 -20.970350 1.469929 -0.883796 0.467862 -0.003046
50.572655 -21.671719 1.726265 -0.929874 0.367571 0.015041
50.662785 -21.337442 1.725111 -0.902952 0.429741 0.000879
50.717903 -20.988264 1.721954 -0.902952 0.429741 0.000879
50.907745 -21.003082 2.076948 -0.902952 0.429741 0.000879
52.765762 -21.606630 1.513092 0.253320 0.967375 -0.003805
52.220901 -21.516171 1.766087 0.198113 0.951252 0.236373
52.420738 -21.530985 2.131081 0.203001 0.943417 0.262211
55.409397 -22.501505 0.817313 0.286364 0.957792 -0.025106
53.729298 -21.917923 0.799166 0.274888 0.960589 -0.041291
54.431503 -22.113695 1.107207 0.292272 0.956334 -0.001864
55.541111 -22.481400 1.861296 0.283684 0.958882 -0.008296
53.803452 -21.972439 1.811185 0.269844 0.959815 0.077062
54.060329 -22.007137 2.188184 0.284450 0.958120 0.033083
57.009884 -22.943850 0.834404 0.286089 0.957704 -0.030917
55.858845 -22.491415 1.130281 0.283684 0.958882 -0.008296
57.456890 -23.050011 1.915423 0.286089 0.957704 -0.030917
55.705875 -22.473341 2.246283 0.283684 0.958882 -0.008296
58.066875 -23.171383 1.165437 0.288142 0.956921 -0.035724
58.210846 -23.200121 1.641441 0.288142 0.956921 -0.035724
57.724731 -23.078737 2.317419 0.287038 0.957425 -0.030752
59.652283 -23.790854 0.862606 0.293167 0.953544 -0.069327
60.385944 -23.880182 1.201600 0.296998 0.952240 -0.070937
59.561787 -23.680260 1.976564 0.293168 0.953544 -0.069327
60.468845 -23.881075 1.695595 0.292614 0.953959 -0.065876
59.870640 -23.718924 2.392562 0.294486 0.953681 -0.061396
62.784023 -24.603886 1.239765 0.290958 0.955138 -0.055269
62.803848 -24.575941 1.750751 0.290958 0.955138 -0.055269
61.770721 -24.336355 2.039711 0.292338 0.954536 -0.058293
62.058529 -24.361095 2.469705 0.292338 0.954537 -0.058293
63.665848 -25.159826 0.905948 0.294656 0.955085 -0.031486
64.027054 -25.072224 0.908889 0.294656 0.955085 -0.031486
65.064934 -25.264948 1.275910 0.295262 0.954685 -0.037386
65.148804 -25.258873 1.805903 0.295262 0.954685 -0.037386
64.805847 -25.205090 2.566900 0.295563 0.955051 -0.022820
64.095695 -25.022270 2.105864 0.294656 0.955085 -0.031486
66.526276 -25.853394 2.176073 0.295262 0.954685 -0.037386
67.610008 -26.011507 1.317077 0.295572 0.955141 -0.018536
67.680420 -26.117832 1.867118 0.295572 0.955141 -0.018536
69.022285 -26.577080 2.248233 0.045544 0.092059 0.994711
68.457466 -26.501505 2.698234 0.027402 0.100568 0.994553
69.423119 -26.626665 2.730231 0.045544 0.092059 0.994711
73.626602 -27.983068 0.462559 0.037653 0.114775 0.992678
27.776653 -10.103798 -0.411304 -0.460518 0.643214 0.611718
27.760649 -10.100784 -0.205305 -0.405564 0.657131 0.635371
29.076534 -10.545400 -1.542193 -0.064885 0.988339 -0.137750
29.351311 -10.565168 -0.995199 0.742552 0.666673 0.064524
28.467106 -10.333600 -1.313247 0.357377 0.933480 0.029945
29.121279 -10.508535 -1.170210 0.229023 0.948196 0.220166
29.324230 -10.541360 -1.358207 0.052259 0.986580 0.154693
29.641024 -10.574991 -0.452210 0.779207 0.540470 0.317379
28.640800 -10.318518 -0.430262 0.439206 0.856246 0.271921
29.730618 -10.712161 -0.040159 0.332791 0.310119 0.890548
28.681829 -10.334392 -0.219258 0.421973 0.790559 0.443796
28.802183 -10.430786 0.161775 0.313709 0.364152 0.876915
30.118912 -10.853307 0.159878 0.439970 0.226054 0.869095
35.793552 -12.753409 -1.256648 0.127080 0.864767 0.485829
37.222210 -13.178943 -1.548549 0.928708 0.199184 0.312772
35.930882 -12.846917 -1.489617 0.224373 0.865781 0.447303
36.855122 -13.089399 -1.043567 0.221918 0.967314 0.122701
36.914742 -13.021803 -1.301597 0.700220 0.631563 0.332897
36.890099 -13.093336 -0.812567 0.226573 0.971018 0.076083
36.012497 -12.792064 -0.592643 0.159392 0.976166 0.147287
36.932499 -12.978958 -0.812615 0.226573 0.971018 0.076083
36.819016 -13.065423 -0.338574 0.288708 0.939104 0.186365
36.883434 -12.959001 -0.338620 0.288709 0.939104 0.186365
36.741207 -13.295069 0.333522 0.995323 0.024573 0.093421
36.947796 -13.049418 0.149413 0.995324 0.024572 0.093420
36.643539 -12.937043 0.332383 0.995324 0.024571 0.093420
36.969177 -12.927089 0.149363 0.995324 0.024572 0.093420
36.897663 -13.015539 0.605402 0.995323 0.024572 0.093420
39.595024 -13.827069 -1.408409 -0.026360 0.396343 0.917724
41.501762 -14.364809 -0.936289 0.225225 0.147973 0.963004
32.870617 -7.729090 -1.296347 0.887473 0.425802 -0.176305
32.764343 -7.380139 -1.288453 -0.897690 -0.048839 0.437912
32.859577 -7.187273 -1.290513 -0.900927 0.360829 0.241108
33.124905 -6.758803 -1.298645 -0.671918 0.570064 0.472813
33.289566 -6.684244 -1.304669 -0.495564 0.853773 0.159651
34.820744 -8.056045 -0.542292 -0.900513 0.110929 0.420441
34.933277 -7.395932 -0.541494 -0.655713 -0.110381 0.746898
39.022160 -6.957586 -1.557687 0.343140 0.935637 -0.082692
38.898243 -6.974445 -1.058681 0.258546 0.965952 -0.009557
38.865566 -7.081688 0.332349 0.525353 0.833771 0.169790
38.789894 -6.857990 0.808290 0.521802 0.848938 -0.083822
39.333229 -7.028979 0.612328 0.566176 0.804536 0.179348
39.192677 -7.163096 1.557366 -0.624414 -0.709724 -0.326188
39.754498 -7.152421 -1.591646 0.475143 0.771152 0.423749
40.264198 -8.066937 -1.108401 0.405091 0.725195 0.556770
41.291328 -7.605668 -1.137547 -0.135239 0.981080 -0.138537
39.996391 -7.147429 -1.360651 0.475142 0.771152 0.423749
40.443951 -7.383000 -1.109594 0.405091 0.725195 0.556770
40.919968 -7.443658 -1.397585 -0.143316 0.988683 0.044342
40.342606 -8.203108 -0.867364 0.647278 0.612399 0.453871
40.449600 -7.910820 -0.657449 -0.802321 -0.501346 -0.323932
40.323803 -8.262708 -0.369346 -0.825264 0.271521 -0.495193
40.415955 -8.018157 -0.370418 -0.916716 -0.018695 -0.399102
40.415493 -7.237763 0.144368 -0.878920 -0.077533 -0.470625
40.415493 -7.237763 0.144368 -0.878920 -0.077533 -0.470625
39.571022 -7.315247 0.821401 0.816037 0.576804 0.037169
39.822514 -7.501152 0.618448 -0.565748 -0.708083 -0.422548
39.499233 -7.376836 1.314419 -0.761566 0.444133 -0.471978
41.204472 -10.254128 -1.430756 0.209866 -0.173565 0.962201
43.006233 -8.099740 -1.481439 0.319253 0.920131 -0.226798
41.217361 -10.491721 -1.154679 0.209866 -0.173565 0.962201
42.511002 -7.968500 -1.178467 -0.343832 -0.916340 0.205184
41.720421 -7.688134 -0.682531 -0.108642 0.981348 -0.158595
41.970425 -7.717973 -0.906527 -0.271306 -0.909336 0.315438
41.838627 -7.440610 -0.684599 0.104972 0.971862 -0.210869
43.220509 -7.895837 -0.138497 0.567894 0.821070 0.057798
43.118713 -8.278517 0.346609 0.535682 0.836906 0.112393
43.247871 -8.022061 0.139536 0.466370 0.855023 0.226791
45.140591 -8.792609 -1.567282 0.348141 0.937436 -0.003481
44.010887 -8.430766 -1.521363 0.318829 0.934857 -0.156173
44.381290 -8.607687 -1.240320 0.317882 0.944785 -0.079567
45.157406 -8.739871 -0.993297 0.374908 0.926431 0.034198
43.469643 -8.289584 -1.210394 -0.309048 -0.938667 0.152954
44.679848 -8.503280 -0.979354 -0.326100 -0.944827 0.031005
44.537472 -8.689129 -0.428300 0.322130 0.939496 0.116534
43.265747 -8.302439 -0.410387 0.567894 0.821070 0.057798
43.575157 -8.150341 -0.414434 0.503520 0.863678 0.022983
44.167801 -8.426719 -0.736367 0.408085 0.912937 -0.003416
43.394272 -7.836215 -0.410516 0.440349 0.895969 -0.057734
44.360275 -8.606597 -0.148320 0.341014 0.926031 0.161789
43.444847 -8.358083 -0.141374 0.526052 0.829572 0.187297
43.944519 -8.312350 -0.145395 0.503887 0.860825 0.071265
43.979351 -8.586675 0.349681 0.353670 0.880422 0.315872
44.841778 -8.828230 0.352734 0.295394 0.946744 0.128135
43.592377 -8.227814 0.348587 0.415592 0.883720 0.215227
43.902443 -8.284492 0.138598 0.390791 0.904522 0.170656
44.363983 -8.515115 0.137654 0.384224 0.908376 0.164998
43.476494 -7.923646 0.139506 0.466370 0.855023 0.226791
44.324944 -9.131389 0.897829 0.284414 0.954706 0.087435
44.913643 -9.111519 0.671813 0.303036 0.948616 0.091084
43.896484 -8.621441 0.660692 0.375228 0.898890 0.226275
44.480824 -8.802338 0.898733 0.284414 0.954706 0.087435
45.006489 -8.760580 0.906712 0.284414 0.954706 0.087435
44.153851 -8.451429 0.892640 0.408805 0.907606 0.095551
44.524952 -8.527989 0.666655 0.272729 0.952897 0.132687
45.037449 -9.071679 1.472799 0.284414 0.954706 0.087435
44.558361 -8.667110 1.243693 0.284414 0.954706 0.087435
45.063934 -8.911650 1.255753 0.284414 0.954706 0.087435
45.223259 -8.701079 -0.758309 0.403043 0.914185 0.042683
45.347355 -9.074760 0.354794 0.201970 0.971528 0.123865
56.590935 -12.554100 -0.248408 0.097302 0.842701 -0.529516
56.416393 -12.677319 0.391633 0.097302 0.842702 -0.529515
56.630730 -12.506244 1.092577 -0.243444 -0.183353 0.952427
56.678814 -12.532188 0.119584 0.097302 0.842701 -0.529516
56.656658 -12.490293 1.531572 -0.243444 -0.183353 0.952427
56.613060 -12.610560 1.804609 -0.243444 -0.183353 0.952427
56.664848 -12.554848 2.173591 -0.243444 -0.183353 0.952427
68.193871 -14.327341 0.428880 -0.677492 0.224037 0.700580
68.113525 -13.867051 0.428749 -0.861832 0.502665 -0.067628
68.562698 -17.109123 0.433727 0.548599 0.611297 -0.570399
68.330833 -16.824776 0.432641 0.623566 0.503131 -0.598352
68.142250 -16.327663 0.431488 0.815744 0.328808 -0.475865
68.236435 -15.787798 0.431318 -0.808886 0.000587 0.587965
68.590385 -15.195244 0.431129 -0.549435 0.127156 0.825804
68.953796 -15.050082 0.432078 -0.577311 0.066333 0.813826
69.412582 -15.037147 0.434065 -0.257482 0.393509 0.882527
70.355141 -15.011273 0.437038 -0.293878 0.603931 0.740880
68.980072 -16.693455 0.927583 0.577138 0.479518 -0.661040
68.730232 -16.406132 0.924498 -0.615441 -0.163209 0.771100
68.837143 -16.090960 0.924397 -0.605913 -0.136266 0.783774
69.077751 -15.693270 0.926269 -0.506721 0.247188 0.825913
69.261093 -15.507349 0.927209 -0.271742 0.431593 0.860165
69.885231 -17.164646 1.305710 -0.565854 -0.540851 0.622326
69.591583 -16.632742 1.299548 -0.489110 -0.280029 0.826048
69.844437 -16.924042 1.304634 -0.508715 -0.415486 0.754043
69.573448 -16.284765 1.298440 -0.304657 -0.037350 0.951730
69.935081 -15.908944 1.302316 -0.228976 0.305557 0.924232
70.267960 -18.002892 0.438971 0.553074 0.823209 0.128206
70.701874 -18.046560 0.947973 0.762656 0.646077 -0.030670
70.515991 -17.765190 0.945886 0.771265 0.623734 -0.126907
70.148056 -17.440084 0.940791 -0.802005 -0.549409 0.234388
70.681725 -15.246834 0.941101 -0.248299 0.364378 0.897539
70.823059 -15.046008 0.942039 -0.257482 0.418102 0.871145
70.480049 -17.779068 1.316892 -0.802005 -0.549409 0.234388
70.304176 -17.501680 1.313807 -0.744227 -0.548340 0.381378
70.242920 -16.210178 1.307401 -0.135778 0.104090 0.985256
70.514091 -15.348207 1.308134 -0.248299 0.364378 0.897539
10.946779 -1.167572 -1.487807 -0.312375 -0.945056 -0.096395
10.684390 -1.062220 -1.248827 0.414728 0.891903 -0.180304
11.034813 -1.183465 -1.296804 0.334959 0.931665 0.140721
11.322212 -1.296739 -0.918781 0.182221 0.900870 -0.393992
11.168249 -1.074136 -0.762827 0.592284 0.337230 -0.731762
11.477240 -1.097988 -0.647824 -0.519761 -0.154070 0.840304
11.828419 -1.168543 -0.468812 -0.414654 -0.147119 0.898008
12.072063 -1.556138 -1.069728 -0.349986 -0.917325 0.189800
12.997620 -1.779757 -0.925684 0.335503 0.931203 -0.142472
13.327935 -1.886127 -1.292662 0.258325 0.962932 -0.077661
12.515861 -1.559117 -0.809731 0.291182 0.924830 -0.244751
13.020041 -1.652543 -0.764714 0.303577 0.935366 -0.181469
12.444639 -1.502465 -0.721744 -0.067919 -0.627900 0.775325
23.164610 -2.113863 -0.963678 -0.223040 -0.898200 0.378802
23.531830 -2.221205 -0.982659 0.226364 0.906680 -0.355935
23.875055 -2.328547 -1.000639 -0.281032 -0.839676 0.464721
22.872402 -2.016462 -0.948696 0.211223 0.905821 -0.367250
23.202656 -2.133735 -0.832674 -0.206119 -0.929721 0.305180
22.862438 -2.029376 -0.816693 -0.202376 -0.925506 0.320128
23.666546 -2.127755 -0.292678 0.312950 0.922349 -0.226572
25.044714 -2.660511 -0.915578 0.269859 0.924727 -0.268432
25.431904 -2.759912 -1.080560 0.294776 0.934463 -0.199714
24.605412 -2.515405 -1.037605 0.262893 0.930132 -0.256402
24.230772 -2.252999 -0.573656 0.341714 0.880203 -0.329356
24.502905 -2.322579 -0.744643 0.348161 0.897988 -0.269075
24.692801 -2.298710 -0.314649 0.424075 0.902178 -0.078964
26.371742 -3.137617 -1.297485 0.320469 0.946404 0.040237
27.736273 -3.445758 -1.525427 -0.610552 0.774285 0.166458
26.251656 -3.096856 -1.123493 0.320469 0.946404 0.040237
26.371742 -3.137617 -1.297485 0.320469 0.946404 0.040237
27.703140 -3.398031 -1.197438 -0.278680 -0.954741 0.103957
26.136410 -3.000445 -1.116513 0.528264 0.847713 -0.048158
25.966005 -3.195223 -0.632470 -0.545923 -0.816092 0.189638
26.395695 -3.124671 -0.820488 0.244834 0.965776 -0.085634
27.746178 -3.415903 -0.873434 -0.278680 -0.954741 0.103957
25.973074 -2.868230 -0.631540 0.638098 0.716444 -0.282027
26.321362 -3.001408 -0.485514 0.717606 0.696209 -0.018289
27.772617 -3.569992 -1.379400 -0.984597 0.067116 0.161442
27.881748 -3.626627 -1.046388 -0.984597 0.067115 0.161442
29.427448 -4.016269 -1.116312 0.489673 0.776803 -0.395976
31.614717 -4.669324 -1.217178 0.410465 0.861226 -0.299679
29.960783 -4.184253 -1.141277 0.178790 0.976787 -0.117986
30.372974 -4.290611 -1.160256 0.331441 0.943467 -0.004046
30.832319 -4.454619 -1.181222 -0.332015 -0.923356 0.192818
30.499224 -4.042110 -0.981315 0.240131 0.967308 -0.081558
31.638504 -4.250837 -0.816277 0.885033 -0.401398 0.235787
31.687557 -3.908909 -0.627354 -0.325290 -0.228308 0.917639
32.003948 -4.786630 -1.420154 0.476463 0.854191 -0.208182
32.655785 -5.136508 -1.265075 0.407175 0.908767 -0.091382
32.179092 -4.855204 -1.243139 -0.395030 -0.895968 0.202959
32.817402 -5.027154 -1.075104 0.277303 0.951108 -0.136001
31.781326 -4.197201 -1.405290 0.510947 0.741588 -0.434719
32.584869 -5.160319 -0.654068 0.683022 0.728496 -0.052685
33.277344 -5.058923 -0.500101 0.172609 0.829327 -0.531435
33.401356 -5.074839 -0.675098 0.270447 0.868815 -0.414751
32.194443 -4.636487 -0.642192 -0.577703 -0.572177 0.582127
32.520931 -4.838266 -0.652147 -0.771062 -0.533403 0.347772
33.301037 -4.955549 -0.500126 0.252301 0.724304 -0.641660
31.857256 -4.182245 -0.632294 -0.325290 -0.228308 0.917639
32.334301 -4.244857 -0.478284 -0.452682 -0.171939 0.874938
31.882309 -3.832378 -0.632373 -0.424043 -0.206306 0.881831
33.167889 -3.776720 -0.494393 -0.425455 0.882814 0.199069
33.600407 -3.614714 -0.502429 -0.465853 0.854819 0.228616
33.687904 -3.410962 -0.504471 -0.383039 0.873284 0.301091
32.558857 -5.156300 -0.053069 0.995914 -0.024461 0.086935
32.583187 -4.588740 -0.052207 0.792884 0.335205 0.508894
32.810654 -4.774626 -0.258165 -0.629519 -0.438823 -0.641202
33.571606 -4.835249 -0.060158 -0.532739 -0.333700 0.777710
32.229424 -4.279631 -0.249275 -0.683615 0.103506 0.722466
32.420300 -4.253790 -0.252283 -0.500497 0.181673 0.846462
33.080681 -4.080838 -0.056327 -0.358043 0.356061 0.863149
33.406265 -4.333301 -0.059273 -0.564930 -0.251760 0.785793
32.667233 -3.872120 -0.254369 -0.447135 0.623336 0.641500
33.230755 -3.730977 -0.057403 -0.579693 0.545189 0.605577
33.296028 -3.844284 -0.057379 -0.627795 0.447561 0.636838
33.800282 -3.581894 -0.061437 -0.195462 0.772291 0.604451
33.591137 -3.503384 -0.267452 -0.351966 0.869767 0.345869
32.424793 -5.122477 0.310925 0.984060 0.112600 0.137647
32.334446 -4.656314 0.156812 0.928588 0.283434 0.239563
33.574280 -4.353168 0.154730 -0.465255 -0.229648 0.854868
33.568172 -3.926771 0.154636 -0.403399 0.232940 0.884878
32.542747 -5.122448 0.709923 0.991822 0.086212 0.094105
32.598728 -5.125387 1.325923 -0.576879 0.793633 0.193280
34.922626 -5.662348 -1.368969 0.409432 0.912296 0.009065
34.353371 -5.515232 -1.343000 -0.137862 -0.914186 0.381126
34.146698 -4.556027 -1.327228 -0.418239 0.089880 -0.903879
34.783371 -5.566861 -0.531992 0.232531 0.937592 -0.258556
34.986736 -5.710993 -0.536958 0.277933 0.956404 -0.089690
33.652229 -5.061876 -0.061104 0.497328 0.526656 -0.689419
33.992401 -5.493269 -0.064001 -0.326705 -0.765271 0.554639
34.079281 -5.123490 0.153906 -0.419074 -0.408120 0.811058
34.424648 -5.285510 0.153942 0.213980 0.705634 -0.675495
35.344772 -5.073769 0.568882 0.703396 0.641156 0.306844
33.991047 -4.677198 0.153801 -0.433923 -0.409449 0.802535
34.329357 -4.822308 0.316832 -0.467587 -0.398029 0.789262
35.225143 -4.832236 0.566826 0.640008 0.708385 0.297625
35.421013 -4.802419 0.568817 0.619670 0.735119 0.274972
33.869595 -4.499279 0.154761 -0.434599 -0.265383 0.860637
34.703777 -4.264692 0.560702 0.544629 0.504342 0.670088
35.152393 -4.542997 0.565760 0.647577 0.636389 0.419110
33.963547 -3.705130 0.154587 -0.446567 0.335149 0.829610
34.531075 -3.970489 0.558640 0.886269 0.021833 0.462656
34.839321 -3.680281 0.317577 0.571815 0.116498 0.812069
34.661182 -3.165429 0.559476 -0.938165 0.267223 -0.220088
34.843815 -3.460628 0.317533 -0.695611 -0.028735 -0.717844
35.512501 -3.368208 0.151511 0.454829 0.118706 0.882632
35.426064 -5.189039 1.024908 0.695245 0.711280 0.103511
34.768913 -4.705974 1.007801 -0.539972 -0.716935 -0.440948
35.251949 -4.763643 0.749810 0.640008 0.708385 0.297625
35.415272 -4.898821 0.752840 0.634901 0.715047 0.292590
34.575741 -4.240812 1.002698 0.938393 0.337279 -0.075237
35.160351 -4.528078 0.747757 0.646015 0.672668 0.360808
34.254505 -3.714036 0.993587 0.920410 0.137373 0.366024
34.436760 -3.834313 0.735611 0.841858 0.033202 0.538676
34.268993 -3.499354 0.993543 0.988040 -0.071084 0.136839
34.498619 -3.351277 0.735513 0.770407 -0.388418 0.505573
34.818169 -3.171375 1.004476 -0.773336 0.614417 0.156340
34.629993 -4.724834 1.391806 0.637730 0.374733 -0.672960
35.112350 -4.901759 1.408843 0.638396 0.721721 0.267525
35.473606 -5.029001 1.193870 0.690017 0.676230 0.258051
34.498875 -4.287517 1.164708 0.763494 0.253264 -0.594082
34.844856 -4.311360 1.396711 0.805915 0.180728 -0.563771
34.200115 -3.547052 1.153553 0.939634 -0.005598 -0.342135
34.508606 -3.778622 1.383599 -0.709304 -0.129124 0.692976
34.172989 -3.490400 1.152542 -0.892356 0.125292 0.433594
34.609478 -3.298573 1.385502 -0.656957 0.474103 0.586202
34.808010 -3.098805 1.391463 0.875203 -0.483745 -0.003265
36.736729 -6.230900 -0.986847 0.255352 0.932188 -0.256557
37.289951 -6.365114 -1.252819 0.257772 0.932661 -0.252380
35.740986 -5.873067 -1.190926 0.307040 0.944606 -0.115950
35.985245 -5.987362 -0.961900 0.278034 0.935189 -0.219359
37.215454 -6.196077 -0.584862 -0.446155 -0.877352 0.176630
37.233421 -6.188105 -0.321864 0.511020 0.840496 -0.180071
37.400021 -6.406773 -0.091810 0.511020 0.840495 -0.180071
35.997669 -3.476557 -0.078470 -0.183644 -0.538650 -0.822272
36.784588 -3.495447 -0.084469 0.016046 0.996100 0.086755
36.943104 -3.277783 -0.085512 0.129007 0.810913 -0.570769
35.967144 -5.621453 0.576008 -0.565401 -0.792253 -0.229471
37.431923 -6.043937 0.149097 0.423610 0.813154 -0.399168
36.007496 -5.397807 0.575953 0.622635 0.758274 0.193253
37.552765 -4.503270 0.326734 -0.116570 -0.005701 0.993166
36.469807 -3.573953 0.150547 0.076536 0.732166 0.676812
37.745609 -3.572961 0.326541 -0.420208 -0.392612 0.818096
37.496361 -3.437796 0.148516 -0.284751 -0.152552 0.946385
35.902088 -5.596590 0.761003 -0.734332 -0.584540 -0.345064
35.872429 -5.362010 0.759945 -0.726788 -0.603021 -0.328854
35.628578 -5.392792 1.199956 -0.640373 -0.618905 -0.454840
35.941978 -5.210897 1.206908 0.420109 0.905634 -0.057754
36.481983 -5.266546 1.455916 0.202643 0.946325 -0.251803
37.840202 -3.391039 1.252506 -0.688275 -0.069592 0.722104
38.075459 -6.621578 -1.284763 0.281143 0.954703 -0.097476
38.358765 -6.754760 -1.040731 0.260349 0.963292 -0.065472
39.048107 -6.616568 -0.826777 0.222182 0.970970 -0.088622
37.643074 -6.449555 -0.594802 0.514341 0.852524 -0.093039
37.776459 -6.593650 -0.094766 -0.344504 -0.886366 0.309309
37.954678 -6.685102 -0.096744 0.443321 0.760355 -0.474687
38.731770 -6.808326 0.332278 -0.712138 -0.669434 -0.211462
38.991253 -6.666179 0.332237 0.627216 0.437751 0.644185
37.602306 -6.192045 0.148132 0.400038 0.825881 -0.397353
37.825703 -6.350094 0.148170 0.360612 0.834534 -0.416548
38.501072 -6.210918 0.331126 0.418784 0.036502 0.907352
38.689404 -5.994226 0.331070 0.677866 -0.074722 0.731379
38.867237 -5.587685 0.331969 0.702394 -0.195375 0.684450
39.092609 -5.370999 0.331917 -0.814544 0.366519 -0.449648
39.421165 -5.228864 0.332881 -0.812483 0.319697 -0.487509
38.636524 -6.717847 0.604255 0.765511 0.598467 0.236285
38.452389 -6.316263 0.602153 -0.924086 -0.291803 -0.246810
37.910244 -3.878080 0.592601 0.670598 0.538479 -0.510234
38.723965 -6.544834 1.289209 0.662558 0.694217 -0.281212
39.022678 -6.818169 1.549276 0.681793 0.730657 0.036036
39.345615 -6.831125 1.119275 -0.528481 -0.842105 -0.107547
38.480556 -6.379828 1.281169 0.781133 0.595584 -0.187379
38.877182 -6.294325 1.542143 0.690856 0.605530 -0.395034
38.081844 -5.739680 1.512014 0.852024 0.423190 -0.308164
38.502567 -5.680043 1.525995 0.852024 0.423190 -0.308164
38.711929 -5.463359 1.531942 0.963650 0.084664 0.253398
39.669975 -6.976411 -0.844691 -0.585397 -0.788367 0.189179
39.812794 -6.937563 0.145296 0.430005 0.871907 0.234252
41.313412 -5.087730 0.338835 0.447120 0.103427 0.888474
40.442249 -3.577956 0.144531 0.148588 -0.019514 0.988707
39.992565 -6.888762 1.325281 -0.869922 0.041899 -0.491406
10.479289 0.203694 -1.215022 0.901821 -0.381924 0.202123
10.875802 0.366652 -1.074037 -0.366806 0.783748 0.501190
10.611499 0.455086 -1.234044 -0.342335 0.903358 0.258361
11.281851 0.044714 -0.769005 -0.233168 0.204979 0.950587
