ply
format ascii 1.0
element vertex 842
property float x
property float y
property float z
property float nx
property float ny
property float nz
end_header
17.782286 2.713344 -1.566894 0.083020 0.017895 0.996387
19.068390 2.736321 -1.569893 0.071828 0.017404 0.997265
20.275488 2.728328 -1.557892 0.084452 0.011613 0.996360
21.734596 2.709346 -1.555893 0.090191 0.007556 0.995896
23.485693 2.726329 -1.540892 0.078443 0.007479 0.996891
25.005772 2.725329 -1.528891 0.072222 0.006546 0.997367
27.561899 2.681372 -1.509893 0.065022 0.005807 0.997867
29.943983 2.688365 -1.496892 0.058095 0.004944 0.998299
32.980061 2.744310 -1.457889 0.053587 0.004697 0.998552
36.782166 2.717336 -1.436890 0.046769 0.004013 0.998898
41.050255 2.691362 -1.381891 -0.717188 -0.236100 0.655666
-45.381687 3.148691 -1.553904 0.036103 -0.407604 0.912445
-31.791473 3.404690 -1.404044 0.728990 0.671620 0.132290
-31.168329 3.140023 -1.371030 0.945937 0.295603 0.133503
-27.328705 2.972425 -1.498565 -0.095912 -0.400575 0.911230
-5.644436 3.453852 -1.837597 -0.014006 -0.031064 0.999419
-4.868084 3.110795 -1.837571 0.297001 -0.347319 0.889472
-4.721140 3.305238 -1.832511 0.190610 -0.146492 0.970674
-4.008393 3.278198 -1.838427 0.020114 -0.054318 0.998321
-3.580711 3.296977 -1.833371 0.128736 -0.117428 0.984702
-3.264360 3.259112 -1.818340 0.115718 -0.339981 0.933285
-2.645705 3.397394 -1.838242 0.177201 -0.178908 0.967777
2.464022 3.334613 -1.776906 -0.218422 -0.266714 0.938699
2.888939 3.218507 -1.750908 -0.034602 -0.024406 0.999103
3.417815 3.247350 -1.724898 -0.069090 -0.015323 0.997493
3.943556 3.269230 -1.721891 -0.155464 -0.045433 0.986796
4.300080 3.195220 -1.706893 -0.050289 -0.012387 0.998658
4.884706 3.215134 -1.690887 -0.119315 -0.017523 0.992702
5.285141 3.161135 -1.666889 -0.040460 0.010811 0.999123
5.915548 3.287990 -1.641877 -0.128333 -0.043385 0.990782
6.287899 3.202034 -1.644882 0.213129 0.109593 0.970858
6.931283 3.234976 -1.649878 -0.041442 0.025357 0.998819
7.395510 3.279921 -1.680874 -0.101301 0.036550 0.994184
7.928820 3.228944 -1.633875 0.171589 0.071101 0.982600
8.571115 3.215939 -1.648875 0.183626 0.068842 0.980583
9.016282 3.229917 -1.645874 0.175681 0.063658 0.982387
9.420434 3.222915 -1.642873 0.151972 0.053071 0.986959
9.989629 3.216911 -1.644873 0.139192 0.047525 0.989124
10.611781 3.268855 -1.638869 0.146676 0.045637 0.988131
10.655966 3.009092 -1.633884 0.125807 0.039436 0.991271
11.577077 3.199908 -1.642873 0.133968 0.038706 0.990230
12.114192 3.213890 -1.632871 0.117909 0.035037 0.992406
12.483274 3.209891 -1.626871 0.142810 0.035142 0.989126
13.208396 3.251847 -1.635869 0.105226 0.030921 0.993968
13.835536 3.199892 -1.616871 0.111759 0.028971 0.993313
14.460625 3.228861 -1.619869 0.110273 0.026950 0.993536
15.120724 3.230856 -1.610869 0.107191 0.024229 0.993943
16.003855 3.210872 -1.610869 0.089799 0.023195 0.995690
16.867968 3.199880 -1.591870 0.100730 0.019525 0.994722
17.886061 3.248831 -1.585867 0.086203 0.019338 0.996090
19.138260 3.054015 -1.580877 0.073478 0.017889 0.997136
19.170177 3.275802 -1.586865 0.084698 0.016731 0.996266
20.402300 3.235839 -1.574867 0.067906 0.016480 0.997556
21.845407 3.246826 -1.570866 0.069248 0.013497 0.997508
23.610554 3.154913 -1.553871 0.060177 0.013037 0.998103
23.650496 3.348726 -1.558861 0.064189 0.012405 0.997861
25.109657 3.094970 -1.538873 0.054181 0.012172 0.998457
25.169586 3.343729 -1.544861 0.052989 0.012467 0.998517
27.705759 3.178888 -1.521869 0.063527 0.006639 0.997958
30.031868 3.123941 -1.503871 0.059070 0.005012 0.998241
30.177799 3.426647 -1.513857 0.054260 0.006954 0.998503
32.945946 3.209856 -1.458867 0.051662 0.004788 0.998653
36.557045 3.220845 -1.428866 0.045341 0.003853 0.998964
36.654099 2.997063 -1.431877 0.045661 0.003800 0.998950
40.796143 3.253813 -1.373865 0.039602 0.003173 0.999211
-52.063515 3.855581 -1.813604 -0.273934 -0.447663 0.851210
-50.700714 3.799368 -1.428439 0.600576 0.014574 0.799435
-50.273163 3.644273 -1.743422 0.851647 0.181571 -0.491660
-31.600708 3.634882 -1.394961 0.617899 0.724976 -0.304320
-30.501648 3.945203 -1.342737 0.215791 -0.974484 -0.061768
-16.958134 3.777842 -1.393996 0.052271 -0.998425 -0.020380
-16.652977 3.804921 -1.580949 0.063612 -0.994086 -0.088011
-16.103563 3.900165 -1.635854 0.116958 -0.993024 -0.014951
-15.582479 3.903556 -1.579785 -0.050021 0.997770 0.044182
-15.181240 3.955274 -1.537720 0.094478 -0.992804 -0.073582
-13.352122 3.888753 -1.576497 0.996984 0.020413 -0.074869
-13.304005 3.919578 -1.571483 0.945803 -0.324155 0.019487
-6.426200 3.940828 -1.833593 0.226112 -0.143037 -0.963542
-5.597185 3.770501 -1.828525 -0.026260 -0.048308 0.998487
-5.091674 3.783022 -1.833460 0.030111 -0.066343 0.997343
-4.581308 3.738578 -1.830407 -0.238509 0.196721 0.951007
-4.084448 3.811134 -1.831334 0.075532 -0.166677 0.983114
-3.679107 3.757030 -1.810297 0.015985 -0.043924 0.998907
-3.121907 3.857483 -1.811216 0.005960 -0.104451 0.994512
-2.581212 3.787102 -1.807170 -0.108454 -0.040648 0.993270
-2.126327 3.783977 -1.807124 0.054122 -0.290468 0.955353
-1.635950 3.890820 -1.803062 0.020814 -0.174409 0.984453
-1.202816 3.943887 -1.803018 0.012636 -0.177383 0.984061
1.099921 3.959406 -1.801887 -0.045456 -0.114258 0.992411
1.431672 3.922112 -1.833880 0.176093 -0.211918 0.961292
1.906700 3.731791 -1.796885 -0.189602 -0.193360 0.962633
2.368675 3.664545 -1.767881 -0.073926 0.016609 0.997125
2.842557 3.673332 -1.755872 -0.018452 0.022696 0.999572
3.364402 3.690142 -1.723864 -0.118963 -0.080245 0.989651
3.865095 3.722990 -1.709857 -0.062531 -0.006531 0.998022
4.388754 3.708887 -1.719855 -0.212828 -0.092728 0.972680
4.929314 3.740775 -1.675849 -0.024113 0.002125 0.999707
5.463793 3.773682 -1.682845 0.220132 0.152292 0.963509
6.006249 3.757633 -1.651844 0.200475 0.127721 0.971338
6.473595 3.750599 -1.672844 0.203600 0.117588 0.971967
6.780814 3.727593 -1.670845 0.181140 0.097242 0.978638
7.491269 3.676591 -1.668847 -0.127502 0.003534 0.991832
7.772380 3.734529 -1.646843 0.169486 0.083642 0.981977
8.383690 3.714520 -1.651844 0.180528 0.079221 0.980374
8.855904 3.700514 -1.649844 0.164485 0.068570 0.983993
9.281070 3.706496 -1.648843 0.129186 0.054990 0.990094
9.887280 3.723465 -1.656842 0.135215 0.052444 0.989427
10.521490 3.717456 -1.646842 0.137759 0.050105 0.989198
11.503763 3.730427 -1.655841 0.161437 0.048505 0.985690
12.064923 3.692453 -1.644843 0.147565 0.043531 0.988094
12.437985 3.745400 -1.640840 -0.848554 -0.080937 0.522882
12.993146 3.658469 -1.457845 -0.177879 -0.943478 -0.279656
13.196195 3.647481 -1.647846 0.982916 0.183738 0.010799
13.820312 3.656467 -1.629845 -0.889962 -0.056848 0.452478
14.454402 3.707414 -1.632842 -0.681299 -0.024398 -0.731599
15.136514 3.709408 -1.624842 -0.745491 -0.008865 0.666457
15.425501 3.857267 -1.563833 -0.174130 0.932927 0.315159
16.026655 3.689421 -1.624843 0.423874 -0.020297 0.905494
16.266588 3.960167 -1.656827 0.169098 -0.117000 0.978630
16.926748 3.764346 -1.609839 0.085333 0.023146 0.996084
17.973896 3.704398 -1.602842 0.086247 0.020541 0.996062
19.231035 3.690407 -1.598843 0.081732 0.018635 0.996480
20.463144 3.708386 -1.586842 0.090103 0.014445 0.995828
21.931265 3.718373 -1.583842 0.084611 0.012643 0.996334
23.701385 3.736353 -1.566841 0.085839 0.009102 0.996267
25.261490 3.719367 -1.554842 0.045074 0.014544 0.998878
27.868637 3.686397 -1.535843 0.056114 0.009436 0.998380
30.264746 3.677404 -1.520844 0.046151 0.009889 0.998885
33.072880 3.537538 -1.466851 0.052130 0.004728 0.998629
33.192829 3.814269 -1.473837 0.050159 0.005611 0.998725
36.630970 3.633444 -1.433846 0.045781 0.003912 0.998944
36.741928 3.877207 -1.439834 0.045687 0.004038 0.998948
40.649052 3.756323 -1.369841 0.039416 0.003377 0.999217
-52.028996 4.017319 -1.812558 0.269400 0.518840 -0.811313
-16.534769 4.445004 -1.696780 0.144471 -0.888981 -0.434559
-14.957137 3.971589 -1.608687 0.057219 -0.998221 -0.016739
-14.610976 4.001496 -1.570634 0.067245 -0.996218 -0.055032
-14.165797 4.028120 -1.605570 -0.079945 0.995839 0.043750
-13.429420 4.094811 -1.593458 0.204168 0.959986 0.191684
-13.151254 4.122951 -1.655415 0.169800 -0.981097 -0.092829
-12.647013 4.161368 -1.592341 -0.027374 0.997772 0.060842
-12.120753 4.200719 -1.527263 -0.054935 0.998387 0.014376
-11.633451 4.247214 -1.607190 -0.097140 0.979981 0.173787
-11.120202 4.278616 -1.538116 0.066372 -0.997741 -0.010412
-10.673901 4.324230 -1.562049 -0.166024 0.930961 0.325188
-10.154706 4.327668 -1.622982 -0.120079 0.990460 -0.067600
-9.553260 4.390807 -1.642891 0.340187 -0.940191 0.017706
-9.105021 4.409431 -1.575830 -0.063765 0.994992 0.076972
-8.616593 4.468924 -1.592756 -0.122867 0.989074 0.081464
-8.115459 4.432486 -1.767701 0.090302 -0.805460 0.585730
-7.724081 4.481289 -1.786642 -0.392359 0.840685 -0.373233
-7.246002 4.423921 -1.836595 0.106615 -0.342119 0.933589
-6.542951 4.309924 -1.831532 -0.190605 0.123857 0.973822
-6.152869 4.253815 -1.819496 -0.196073 0.133373 0.971477
-5.572649 4.184172 -1.824440 -0.221164 0.168347 0.960597
-5.126994 4.255846 -1.804373 -0.027076 -0.030462 0.999169
-4.621590 4.225430 -1.809320 0.005918 -0.094613 0.995497
-4.071161 4.167923 -1.802268 -0.030367 -0.017273 0.999390
-3.604475 4.191645 -1.812212 0.058908 -0.212914 0.975294
-3.072656 4.206234 -1.794153 0.021170 -0.098140 0.994947
-2.578955 4.173993 -1.791109 0.016704 -0.081057 0.996569
-2.085917 4.223793 -1.775055 0.001147 -0.096986 0.995285
-1.588055 4.180676 -1.764018 -0.015284 -0.044675 0.998885
-1.107973 4.203675 -1.754977 0.009300 -0.175733 0.984394
-0.599808 4.213725 -1.774941 0.100334 -0.186877 0.977246
-0.105670 4.210908 -1.755913 -0.010387 -0.272025 0.962234
0.398487 4.198192 -1.758890 0.122453 -0.144108 0.981956
0.874582 4.203624 -1.793870 0.033603 -0.152858 0.987677
1.391714 4.224105 -1.759852 -0.012741 -0.063097 0.997926
1.906751 4.225693 -1.799840 0.017756 0.039707 0.999054
2.401659 4.216373 -1.778832 -0.089197 -0.038588 0.995266
2.865440 4.169144 -1.747830 -0.088188 -0.081582 0.992757
3.397222 4.241894 -1.732818 -0.068351 -0.032393 0.997135
3.899888 4.242723 -1.724814 -0.136173 -0.106632 0.984930
4.384470 4.217603 -1.689814 -0.063903 -0.008018 0.997924
4.846964 4.205507 -1.678813 0.198831 0.173434 0.964566
5.400466 4.245383 -1.668809 -0.104897 -0.057650 0.992811
5.775807 4.196358 -1.665812 0.190418 0.138515 0.971882
6.457295 4.242244 -1.667807 -0.062403 -0.023552 0.997773
6.891588 4.235206 -1.680808 0.169576 0.105090 0.979898
7.309872 4.176214 -1.684812 0.166350 0.098653 0.981119
8.126222 4.361014 -1.661798 0.167199 0.090066 0.981801
8.202325 4.220119 -1.662809 0.169750 0.088343 0.981519
9.042680 4.271033 -1.650805 0.177814 0.083475 0.980517
9.600887 4.303982 -1.649803 0.159610 0.070970 0.984626
9.709014 4.116134 -1.653816 0.150357 0.063286 0.986604
10.391191 4.250998 -1.657807 0.142755 0.056830 0.988125
11.105350 4.409840 -1.633797 0.142435 0.058921 0.988049
11.450502 4.277945 -1.675806 0.004386 -0.125013 0.992145
11.934608 4.340878 -1.657802 0.012483 -0.141119 0.989914
12.458768 4.257935 -1.417808 0.050440 0.137315 0.989242
13.055844 4.439767 -1.660796 -0.014996 -0.104108 0.994453
13.167929 4.270916 -1.667807 -0.072012 -0.035266 0.996780
13.814066 4.264912 -1.649808 0.118931 0.035738 0.992259
14.421159 4.333841 -1.649804 0.035766 0.202717 0.978584
15.109385 4.031110 -1.630823 -0.359463 0.158349 0.919626
15.523458 4.012123 -1.578824 0.004075 0.845755 0.533555
15.937428 4.285864 -1.420808 0.399377 -0.034501 0.916137
16.260471 4.312840 -1.665806 0.106088 -0.096492 0.989664
16.942661 4.020106 -1.617824 -0.056199 0.035552 0.997786
18.020746 4.187943 -1.616814 0.087599 0.020814 0.995938
19.325884 4.214911 -1.616813 0.081163 0.019528 0.996509
20.528004 4.221899 -1.600813 0.064401 0.018579 0.997751
22.008141 4.194919 -1.596815 0.076613 0.015593 0.996939
23.822273 4.216893 -1.581815 0.070197 0.012881 0.997450
25.335382 4.178926 -1.564817 0.059772 0.012519 0.998134
27.979532 4.193907 -1.547817 0.061521 0.009209 0.998063
30.409639 4.228870 -1.532816 0.059039 0.006620 0.998234
33.318752 4.252845 -1.482815 0.044245 0.008013 0.998989
36.895874 4.244850 -1.447816 0.044441 0.004760 0.999001
40.872986 4.230862 -1.379817 0.039284 0.003541 0.999222
-64.160553 4.871672 -1.479940 0.177055 -0.666103 0.724540
-28.362614 4.839813 -1.425233 0.641348 0.114420 -0.758671
-27.723370 4.596073 -1.387209 0.790387 0.053981 0.610225
-25.637562 4.802490 -1.410884 0.551929 -0.049881 -0.832398
-23.902271 4.849142 -1.475646 -0.335827 0.083970 0.938174
-12.965495 4.917726 -1.761209 -0.013677 -0.008610 0.999869
-12.530338 4.932394 -1.765150 -0.010940 -0.008025 0.999908
-11.775158 4.926109 -1.754056 -0.060527 0.086444 0.994416
-10.572153 4.525784 -1.695991 0.166408 0.984565 -0.054229
-9.975126 4.473027 -1.713927 0.024834 0.747607 -0.663677
-9.670409 4.648965 -1.679850 0.100592 0.173628 0.979660
-9.213531 4.559663 -1.693811 0.070696 0.044114 0.996522
-8.604255 4.562831 -1.669734 0.179985 -0.587955 0.788615
-8.078072 4.544259 -1.582673 -0.102469 0.924531 0.367072
-7.583860 4.528802 -1.580615 -0.201101 0.973603 0.107963
-7.107215 4.633329 -1.611536 -0.106842 0.990357 0.088193
-6.574903 4.621786 -1.661474 0.006597 0.947064 -0.320977
-6.076298 4.694293 -1.649401 0.238968 -0.671307 0.701599
-5.546776 4.724753 -1.618334 0.204944 -0.908112 0.365144
-5.138458 4.712605 -1.616290 -0.225593 0.867789 -0.442776
-4.604810 4.753096 -1.596223 0.188124 -0.945313 0.266447
-4.079315 4.727691 -1.685172 0.062437 -0.996688 0.052103
-3.609591 4.780422 -1.654115 0.206103 -0.947417 0.244792
-3.103843 4.809117 -1.645061 0.273839 -0.940837 -0.199593
-2.605015 4.847893 -1.699010 0.056259 -0.966881 0.248949
-2.117173 4.881752 -1.687965 -0.258896 0.959626 -0.109958
-1.625555 4.800694 -1.744938 -0.012676 -0.278352 0.960396
-1.128791 4.744689 -1.730911 0.016645 -0.081982 0.996495
-0.597851 4.707712 -1.732883 -0.009212 -0.059840 0.998165
-0.082826 4.713870 -1.721856 -0.026297 -0.076046 0.996758
0.437201 4.713132 -1.729834 0.012698 -0.043667 0.998965
0.898089 4.705571 -1.752819 0.064936 -0.064348 0.995813
1.390045 4.755056 -1.764800 -0.076174 -0.069843 0.994645
1.903934 4.743608 -1.766791 0.007308 -0.088920 0.996012
2.442823 4.796214 -1.814778 -0.201854 -0.005008 0.979403
2.873443 4.710976 -1.760781 -0.080476 -0.015902 0.996630
3.411179 4.755697 -1.753772 -0.129289 -0.085761 0.987891
3.921804 4.736498 -1.709772 -0.045004 0.007892 0.998956
4.407343 4.724344 -1.691771 0.189031 0.201614 0.961051
4.815770 4.666263 -1.700775 0.175101 0.171175 0.969556
5.379268 4.728100 -1.671769 0.177632 0.156657 0.971548
5.889686 4.724008 -1.689769 -0.077398 -0.012222 0.996925
6.532135 4.774876 -1.680765 0.175946 0.129758 0.975810
6.957434 4.703869 -1.680771 0.174980 0.117821 0.977497
7.335654 4.722813 -1.667770 0.168334 0.108040 0.979791
7.966005 4.703767 -1.667772 0.172442 0.100529 0.979876
8.451240 4.714720 -1.664772 0.157353 0.087604 0.983649
8.874425 4.732677 -1.660771 0.146678 0.079374 0.985995
9.485681 4.726645 -1.662772 0.154239 0.077059 0.985024
9.952863 4.706635 -1.623774 0.150719 0.072088 0.985945
10.939181 4.747560 -1.629773 0.133526 0.057314 0.989387
11.513358 4.727556 -1.620775 0.136888 0.056653 0.988965
11.990496 4.708557 -1.625777 0.128323 0.050198 0.990461
12.453629 4.653588 -1.433781 0.978120 -0.106278 0.178845
12.738682 4.714532 -1.632777 0.572964 0.165425 0.802712
13.349818 4.727507 -1.612777 -0.136217 -0.026159 0.990334
19.320787 4.596553 -1.624791 0.081164 0.019528 0.996509
20.556885 4.734416 -1.612783 0.089122 0.017142 0.995873
22.041021 4.741402 -1.607784 0.076673 0.016560 0.996919
23.884171 4.733402 -1.592785 0.071704 0.014007 0.997328
25.425282 4.727402 -1.576787 0.066916 0.012986 0.997674
28.090443 4.708414 -1.558789 0.065489 0.009132 0.997811
30.534569 4.686430 -1.543791 0.057626 0.007794 0.998308
30.762547 4.919207 -1.558778 0.054175 0.009554 0.998486
33.441700 4.642468 -1.491794 0.041613 0.009182 0.999092
37.098820 4.681427 -1.459793 0.100105 -0.099797 0.989959
37.173790 4.928189 -1.463780 0.225501 -0.111524 0.967839
41.059937 4.641463 -1.388796 0.039951 0.003524 0.999195
41.184917 4.851260 -1.394785 0.037060 0.004928 0.999301
-27.299723 5.099299 -1.368030 0.575303 -0.493653 0.652175
-25.928801 5.347919 -1.619790 0.659318 -0.026266 -0.751405
-25.655476 5.139232 -1.415805 0.656505 -0.017501 -0.754119
-23.983082 5.219049 -1.486567 -0.234473 0.059491 0.970301
-22.106966 5.208289 -1.360325 0.268032 -0.776844 0.569800
-21.800667 4.979578 -1.446339 0.222876 0.965327 -0.135905
-21.075439 5.338022 -1.400159 0.018316 -0.430961 0.902185
-20.793865 5.198283 -1.377156 -0.004638 -0.251360 0.967883
-20.263256 5.370498 -1.342046 0.086208 -0.400661 0.912162
-19.824413 5.302238 -1.444005 0.032765 -0.252461 0.967052
-18.980850 5.138793 -1.374934 -0.162102 0.334319 0.928415
-18.752615 5.203034 -1.358890 -0.145288 0.289459 0.946100
-17.460060 5.318986 -1.366695 0.036647 0.080588 0.996074
-17.304811 5.389449 -1.355659 0.500676 -0.512073 -0.697929
-14.737638 5.292801 -1.800351 -0.041995 0.023699 0.998837
-13.539472 5.268174 -1.756204 -0.017998 -0.014451 0.999734
-12.999990 5.071704 -1.773179 -0.009516 -0.010388 0.999901
-12.460657 5.132018 -1.766097 -0.005989 -0.025427 0.999659
-12.166497 5.462858 -1.745988 -0.000712 -0.028757 0.999586
-11.774359 5.165915 -1.768003 0.003896 -0.023146 0.999725
-10.437690 5.242822 -1.724819 -0.004611 -0.002274 0.999987
-10.276034 5.426198 -1.715760 -0.020681 -0.014782 0.999677
-9.541339 5.249131 -1.706707 -0.002539 0.000683 0.999996
-8.861732 5.045249 -1.679666 -0.064440 0.005847 0.997904
-8.828734 5.341945 -1.701601 -0.008664 0.004977 0.999950
-8.336778 5.259545 -1.691558 -0.014057 -0.001806 0.999900
-7.691464 5.254648 -1.673483 0.001556 0.011538 0.999932
-6.898931 5.277324 -1.653386 -0.041180 -0.000518 0.999152
-6.744334 5.124960 -1.609397 -0.062145 -0.054223 0.996593
-6.115224 5.025213 -1.635343 -0.014393 0.011721 0.999828
-5.489408 5.125392 -1.673254 0.015744 -0.017521 0.999723
-4.991133 5.077024 -1.654209 0.075204 0.035660 0.996530
-4.531692 5.078764 -1.645160 0.167898 -0.137807 0.976125
-4.148174 5.117724 -1.662114 -0.012455 0.086850 0.996144
-3.619494 5.148329 -1.638058 -0.004237 -0.167965 0.985784
-3.101715 5.200012 -1.631003 -0.033478 0.074867 0.996631
-2.618031 5.217842 -1.610959 0.000361 0.045545 0.998962
-2.085636 5.073649 -1.630936 -0.189665 0.339590 0.921252
-1.608888 5.074616 -1.579902 0.055551 -0.835680 0.546400
-1.100049 5.071604 -1.596869 -0.053354 -0.324674 0.944320
-0.571073 5.105645 -1.580835 -0.187846 -0.249426 0.950000
-0.111226 5.132898 -1.579810 0.102162 -0.474991 0.874040
0.335582 5.155251 -1.591790 0.318461 -0.561279 0.763903
0.887671 5.287558 -1.706759 0.055903 -0.057340 0.996788
1.428495 5.247975 -1.733750 0.006357 -0.105545 0.994394
1.883139 5.170566 -1.755750 0.010742 -0.113346 0.993498
2.388888 5.186171 -1.772741 0.162611 -0.102737 0.981327
2.893585 5.223833 -1.790733 -0.183923 -0.094467 0.978391
3.407226 5.256536 -1.743726 -0.068974 0.014201 0.997517
3.925810 5.266292 -1.721723 0.162329 0.217164 0.962543
4.344240 5.219148 -1.723727 -0.111071 -0.030009 0.993359
4.958817 5.249933 -1.686724 0.167425 0.178234 0.969640
5.462241 5.282782 -1.700721 0.179333 0.172109 0.968617
5.826532 5.204739 -1.687728 -0.054890 -0.013174 0.998405
6.292875 5.170667 -1.692732 0.163989 0.136688 0.976946
6.993302 5.323455 -1.680720 0.147009 0.111614 0.982818
7.164454 5.072594 -1.678742 0.139069 0.103489 0.984860
7.748759 5.170456 -1.680735 0.156198 0.104699 0.982161
8.248010 5.179396 -1.676735 0.136884 0.089530 0.986533
8.711211 5.243306 -1.679731 0.160870 0.092112 0.982668
9.252456 5.187302 -1.664737 0.143182 0.080035 0.986455
9.768651 5.215243 -1.633736 0.138624 0.073427 0.987619
10.526907 5.274149 -1.606733 0.143402 0.071860 0.987052
11.100071 5.374039 -1.603727 -0.021598 -0.060193 0.997953
11.299181 5.146214 -1.615744 -0.014806 -0.053377 0.998465
11.746313 5.131208 -1.616746 0.000351 -0.045313 0.998973
12.452472 5.264071 -1.624738 -0.628739 -0.598200 -0.496833
12.825585 5.164142 -1.569746 -0.240639 0.037418 0.969893
13.319727 5.048228 -1.622755 0.174324 0.067235 0.982390
20.621841 4.989179 -1.622768 -0.041865 0.031914 0.998613
21.639912 5.156016 -1.583759 -0.003879 0.006480 0.999971
21.836927 5.166006 -1.599758 0.076673 0.016560 0.996919
22.159969 5.096069 -1.623763 0.076673 0.016560 0.996919
23.446035 5.376798 -1.570747 0.071195 0.014719 0.997354
24.031113 5.155004 -1.609761 0.071085 0.014630 0.997363
24.153112 5.221941 -1.619757 0.000993 -0.024055 0.999710
25.528225 5.121029 -1.588764 0.066452 0.013520 0.997698
25.753210 5.333828 -1.607751 0.066522 0.013611 0.997692
28.138397 5.035102 -1.565771 0.059197 0.010824 0.998188
28.215364 5.322828 -1.573754 0.059455 0.011053 0.998170
30.756508 5.214924 -1.560762 0.055397 0.009465 0.998420
33.562645 5.090038 -1.500770 0.049194 0.007669 0.998760
33.673618 5.377762 -1.508754 0.048808 0.007964 0.998776
36.552727 5.372761 -1.439756 0.341280 0.086605 0.935964
37.276775 5.121003 -1.469770 0.287524 -0.113522 0.951022
41.344883 5.265859 -1.402764 0.037058 0.004928 0.999301
-27.514317 5.542548 -1.384950 0.545238 -0.533797 0.646357
-27.156824 5.691310 -1.366868 0.899428 -0.339072 0.275789
-25.669256 5.519923 -1.421715 0.710310 -0.009304 -0.703828
-23.928099 5.838315 -1.492412 -0.198580 0.029138 0.979652
-17.390963 5.656481 -1.369609 0.574309 -0.412646 0.707030
-17.054188 5.880279 -1.455515 0.965116 0.099349 -0.242240
-16.361347 5.781329 -1.828449 0.190689 0.793924 -0.577341
-14.486204 5.720675 -1.789224 -0.029274 -0.004140 0.999563
-14.333534 5.921045 -1.781160 -0.031137 -0.001602 0.999514
-13.382889 5.745308 -1.761079 -0.017779 -0.015963 0.999714
-13.262473 5.866845 -1.753038 -0.013425 -0.017745 0.999752
-12.468759 5.716567 -1.739971 -0.010586 -0.022328 0.999695
-11.987458 5.770075 -1.740900 0.005429 -0.025594 0.999658
-11.475847 5.602669 -1.754871 0.014454 -0.035528 0.999264
-11.231815 5.902706 -1.741779 0.316782 -0.329851 0.889296
-10.061935 5.743325 -1.710669 -0.015284 -0.024586 0.999581
-9.424419 5.516592 -1.711638 -0.003729 -0.013935 0.999896
-9.178521 5.765687 -1.698558 -0.014029 -0.020640 0.999689
-8.496549 5.663744 -1.682498 -0.005235 -0.043984 0.999018
-8.046468 5.620454 -1.684453 -0.006144 -0.028810 0.999566
-7.531238 5.607962 -1.688396 -0.020310 -0.026843 0.999433
-7.223541 5.775969 -1.661330 -0.004957 -0.030221 0.999531
-6.593354 5.714202 -1.662271 0.016906 -0.046915 0.998756
-6.146978 5.739930 -1.676217 0.026734 -0.063307 0.997636
-5.649640 5.734545 -1.666165 -0.009354 -0.012481 0.999878
-5.157272 5.729196 -1.658116 -0.027303 -0.020577 0.999415
-4.655664 5.791824 -1.655056 0.024903 -0.058068 0.998002
-4.149527 5.677531 -1.633026 -0.043024 0.053230 0.997655
-3.501824 5.691879 -1.614965 0.006858 0.048044 0.998822
-3.039791 5.891713 -1.601898 -0.034927 -0.058574 0.997672
-2.668500 5.838858 -1.617877 0.069784 0.006576 0.997540
-2.068740 5.851525 -1.615832 -0.029161 0.055358 0.998041
-1.574349 5.737505 -1.602816 -0.035873 0.029246 0.998928
-1.143681 5.774663 -1.584786 0.011599 0.020684 0.999719
-0.551974 5.703605 -1.540765 -0.164585 -0.096051 0.981675
-0.112546 5.563903 -1.600762 0.023701 -0.088398 0.995803
0.538526 5.628967 -1.519733 0.997756 -0.054064 0.039508
0.882229 5.788548 -1.691707 0.021780 -0.103007 0.994442
1.413929 5.753954 -1.713699 -0.031743 -0.182710 0.982654
1.879494 5.680509 -1.731699 0.052833 -0.151219 0.987087
2.408246 5.791052 -1.744681 0.060587 -0.027439 0.997786
2.888765 5.688729 -1.777688 -0.085773 -0.005787 0.996298
3.413372 5.736396 -1.751681 0.126135 0.217378 0.967903
3.872828 5.664181 -1.742686 0.151622 0.220657 0.963494
4.431389 5.792887 -1.704674 0.145407 0.190096 0.970938
5.007885 5.797671 -1.715674 0.146525 0.171052 0.974306
5.396185 5.713585 -1.698682 -0.051725 -0.023582 0.998383
5.857528 5.728452 -1.703682 0.147309 0.146684 0.978153
6.316844 5.668376 -1.699689 0.158971 0.141083 0.977151
6.752121 5.643301 -1.683692 0.141124 0.119263 0.982782
7.432512 5.702148 -1.690689 0.141388 0.109310 0.983901
7.955784 5.704071 -1.685691 0.137881 0.100502 0.985337
8.572068 5.785938 -1.710686 0.134765 0.093865 0.986422
8.980248 5.744920 -1.673691 0.145495 0.091476 0.985121
9.546472 5.792829 -1.648689 0.132149 0.080721 0.987938
9.663553 5.516022 -1.642712 0.137498 0.077907 0.987433
10.448789 5.851706 -1.551688 -0.376282 -0.361980 0.852867
10.843928 5.764746 -1.596696 -0.049423 -0.140585 0.988834
11.376082 5.813668 -1.434694 0.514524 0.838505 0.179368
11.920246 5.760685 -1.586700 0.185979 -0.114088 0.975908
12.569407 5.834593 -1.573696 -0.296563 -0.372354 0.879433
12.812498 5.607769 -1.589714 0.107154 0.042296 0.993342
13.397616 5.742635 -1.590705 -0.145300 -0.227247 0.962936
14.010730 5.906475 -1.580695 -0.188410 -0.455938 0.869841
23.333004 5.544642 -1.565736 0.004485 -0.016898 0.999847
24.893110 5.688498 -1.554729 -0.011527 -0.054427 0.998451
27.537270 5.869314 -1.538721 0.059774 0.012211 0.998137
27.740295 5.730444 -1.549729 0.059480 0.011582 0.998162
28.345350 5.532629 -1.583742 0.059489 0.011133 0.998167
30.361431 5.837333 -1.544725 0.055461 0.010821 0.998402
30.911478 5.591565 -1.572740 0.055104 0.009889 0.998432
33.731594 5.713440 -1.513735 0.048803 0.008120 0.998775
36.573719 5.492646 -1.440749 0.308784 0.058391 0.949338
37.498726 5.812338 -1.483732 0.065426 0.055912 0.996290
41.567852 5.759383 -1.413737 0.392130 -0.107508 0.913606
-27.169689 6.051019 -1.371783 0.856750 -0.366997 0.362345
-25.715685 6.336320 -1.435526 0.061235 0.041540 0.997259
-18.285652 6.105834 -1.454621 -0.008853 -0.055120 0.998440
-17.737492 6.452861 -1.419474 0.689949 0.585235 0.425994
-17.063070 6.237981 -1.359436 0.953891 0.092205 -0.285639
-16.723379 6.120063 -1.433419 -0.230428 -0.089080 0.969003
-15.351310 6.053030 -1.823260 0.161321 0.129701 0.978342
-14.302319 5.986897 -1.780142 -0.031137 -0.001602 0.999514
-13.120462 6.176171 -1.752954 -0.014507 -0.012984 0.999810
-12.227254 6.171485 -1.736845 -0.011288 -0.017036 0.999791
-11.677030 6.194818 -1.728773 -0.190900 -0.433642 0.880631
-11.056780 6.214952 -1.741693 0.236503 -0.107945 0.965616
-9.695304 6.219904 -1.699530 -0.006616 0.002329 0.999975
-8.907442 6.073683 -1.688466 -0.018007 -0.006621 0.999816
-8.676579 6.322849 -1.681392 -0.022927 -0.001247 0.999736
-8.058872 6.134169 -1.667357 -0.004559 -0.021593 0.999756
-7.471494 6.161461 -1.660287 -0.001185 -0.007097 0.999974
-7.025542 6.064243 -1.668255 -0.015846 -0.011250 0.999811
-6.636507 6.336001 -1.647166 0.004972 -0.023864 0.999703
-6.043633 6.166432 -1.644133 0.025043 -0.083401 0.996201
-5.616202 6.213243 -1.670082 0.035467 -0.088033 0.995486
-5.087074 6.121849 -1.646045 -0.016489 -0.022058 0.999621
-4.620701 6.120616 -1.649001 -0.021608 -0.034312 0.999178
-4.088777 6.293191 -1.611927 0.025498 -0.122007 0.992202
-3.646435 6.270097 -1.612893 0.006367 -0.008274 0.999945
-3.043046 6.188666 -1.599857 -0.000698 -0.019254 0.999814
-2.632555 6.210724 -1.631824 -0.031016 -0.038971 0.998759
-2.060875 6.231470 -1.584783 -0.008371 -0.105210 0.994415
-1.577320 6.225487 -1.619755 -0.007669 -0.116701 0.993137
-1.073845 6.156523 -1.573737 -0.038601 0.035620 0.998620
-0.533216 6.121578 -1.600717 0.025880 0.041295 0.998812
-0.159303 6.390978 -1.613672 0.048738 -0.099899 0.993803
0.504249 6.204024 -1.684672 0.057099 -0.038343 0.997632
0.896710 6.177521 -1.690665 0.026105 0.043416 0.998716
1.382357 6.222956 -1.665651 -0.555373 0.036042 0.830820
1.878949 6.229448 -1.645643 0.034279 -0.212234 0.976618
2.382475 6.172012 -1.675644 0.146720 -0.406071 0.901987
2.927103 6.234586 -1.673634 -0.057917 -0.651667 0.756291
3.338474 6.151334 -1.702640 0.382906 0.909909 -0.159528
3.807967 6.245037 -1.709630 0.130791 -0.168939 0.976910
4.474572 6.313685 -1.734624 -0.086606 -0.037352 0.995542
4.882875 6.240537 -1.713632 -0.052799 -0.036809 0.997927
5.405263 6.227351 -1.715635 0.135753 0.157540 0.978137
5.883587 6.179223 -1.709641 0.133835 0.142081 0.980766
6.302857 6.171111 -1.687643 0.158678 0.153149 0.975380
7.006291 6.348850 -1.706630 0.128457 0.115824 0.984928
7.559582 6.334743 -1.698634 0.145797 0.120657 0.981929
7.727656 6.131835 -1.699653 0.131914 0.104924 0.985693
8.348953 6.186703 -1.719651 0.134655 0.098390 0.985996
8.786144 6.201630 -1.689652 0.126477 0.091459 0.987744
9.355373 6.213551 -1.658653 0.125651 0.084872 0.988437
10.053629 6.306409 -1.621649 -0.363958 -0.140523 0.920754
10.298714 6.207452 -1.504658 -0.931021 -0.109891 0.348028
11.037962 6.012538 -1.496677 0.147781 0.983314 -0.106091
11.415084 5.919587 -1.535686 -0.292168 -0.955828 -0.032106
12.389336 6.086397 -1.495676 -0.002639 -0.894943 0.446172
12.903461 6.122340 -1.472675 -0.015451 -0.949787 0.312516
13.374567 6.162284 -1.433673 0.163591 -0.868398 0.468106
13.899678 6.221214 -1.489671 -0.018912 0.840443 -0.541569
14.355770 6.249171 -1.433670 -0.119781 0.952272 -0.280770
14.824860 6.287123 -1.480669 0.066314 -0.943495 0.324685
15.363955 6.342056 -1.432666 0.208000 -0.939242 0.273057
27.510241 6.270938 -1.542696 0.059774 0.012211 0.998137
29.980383 6.253941 -1.528700 0.056963 0.013736 0.998282
30.204409 6.004176 -1.537715 0.055697 0.011408 0.998383
32.987522 6.334852 -1.482698 0.049777 0.009999 0.998710
33.234547 6.113061 -1.492712 0.049341 0.009133 0.998740
33.993580 6.033135 -1.529717 0.049048 0.008460 0.998761
37.000675 6.390786 -1.466699 0.173483 0.030062 0.984378
37.603714 6.070092 -1.490717 0.072600 0.070329 0.994878
37.708710 6.207960 -1.495710 0.132385 0.108526 0.985239
-25.724478 6.723997 -1.442436 0.085109 0.043713 0.995412
-17.746260 6.846580 -1.545388 0.996508 0.070257 0.045122
-17.176294 6.483166 -1.601396 0.134240 0.626978 0.767384
-15.947860 6.875163 -1.830156 0.066908 0.099316 0.992804
-13.756185 6.961477 -1.768868 -0.024698 0.010406 0.999641
-12.641047 6.923161 -1.740741 -0.139617 0.015114 0.990090
-11.824967 6.879759 -1.734652 0.659323 0.292308 0.692711
-11.701520 6.696471 -1.452674 0.579643 0.798385 0.163080
-11.183055 6.799862 -1.471591 0.770466 -0.622237 -0.138578
-9.441139 6.569927 -1.697433 -0.010601 0.012311 0.999868
-9.323482 6.774454 -1.700381 -0.015219 0.016643 0.999746
-8.482471 6.663083 -1.689307 -0.022652 0.010276 0.999691
-8.264877 6.833358 -1.679253 -0.018297 0.014698 0.999725
-7.592907 6.716505 -1.669201 -0.009853 0.005320 0.999937
-7.020860 6.631933 -1.656155 -0.016020 0.008241 0.999838
-6.781314 6.777192 -1.643105 -0.013630 0.002112 0.999905
-6.137846 6.812407 -1.647035 -0.012153 -0.003578 0.999920
-5.459105 6.563672 -1.624010 0.013624 -0.061135 0.998037
-5.124212 6.806698 -1.620941 0.006439 -0.071601 0.997413
-4.688084 6.736592 -1.633912 0.015884 -0.050254 0.998610
-4.099728 6.698114 -1.622868 -0.023601 -0.006714 0.999699
-3.586479 6.624876 -1.618838 0.006882 0.003374 0.999971
-3.042998 6.619597 -1.621798 0.033380 -0.037991 0.998720
-2.575134 6.802523 -1.618742 0.054877 -0.100397 0.993433
-2.169245 6.570673 -1.606747 0.013972 -0.053718 0.998458
-1.613446 6.674533 -1.593703 0.013451 -0.002121 0.999907
-1.150862 6.721653 -1.582674 -0.008406 0.014459 0.999860
-0.615510 6.588715 -1.600667 -0.022636 -0.044528 0.998752
-0.137890 6.636944 -1.606644 0.074630 -0.046657 0.996119
0.456910 6.727087 -1.708617 -0.029261 -0.056647 0.997965
0.942372 6.674455 -1.708612 0.037266 0.250960 0.967280
1.313793 6.698002 -1.586603 0.294209 0.925345 -0.239118
1.877289 6.601414 -1.595605 0.066016 0.233159 0.970195
2.414044 6.840896 -1.617576 0.024661 -0.216661 0.975935
2.878438 6.793524 -1.647578 0.030380 -0.182626 0.982713
3.385840 6.716177 -1.682584 0.022747 -0.199213 0.979692
3.896253 6.673874 -1.731588 0.235931 -0.126603 0.963488
4.369649 6.707609 -1.732586 -0.114521 -0.071709 0.990829
4.881035 6.718364 -1.728586 0.112737 0.159299 0.980772
5.382366 6.668177 -1.717593 0.134577 0.166328 0.976844
5.841661 6.654017 -1.694596 0.134788 0.153981 0.978837
6.513115 6.863713 -1.708580 0.121964 0.126622 0.984425
6.749194 6.637759 -1.709602 0.134596 0.133025 0.981931
7.308500 6.692594 -1.707600 0.139818 0.128508 0.981803
7.843760 6.699476 -1.706602 0.134375 0.114537 0.984289
8.424018 6.690374 -1.689607 0.136156 0.108174 0.984764
9.021277 6.824193 -1.671598 0.113932 0.085167 0.989831
9.185317 6.569333 -1.668622 0.114843 0.085025 0.989738
9.859575 6.715147 -1.630613 0.112650 0.078982 0.990491
10.249704 6.716097 -1.536615 -0.879016 -0.119965 0.461454
27.129206 6.588644 -1.523675 -0.080203 -0.540425 0.837561
27.229214 6.522705 -1.529680 -0.202813 -0.530942 0.822780
29.407335 6.812419 -1.503664 -0.260329 -0.331669 0.906766
29.818361 6.562651 -1.523681 -0.215135 -0.276601 0.936594
32.916508 6.751458 -1.483673 -0.095613 -0.105250 0.989839
36.539650 6.785412 -1.448675 0.372569 0.120672 0.920125
36.741661 6.584602 -1.456687 0.297621 0.125942 0.946341
47.941971 6.682486 -1.344689 0.315686 -0.059398 0.947003
-17.877794 7.328608 -1.695299 0.849244 0.168706 -0.500322
-17.772348 7.146412 -1.557325 0.905605 0.338336 -0.255750
-16.809984 7.209497 -1.826192 -0.321278 -0.049583 0.945686
-15.865319 7.047773 -1.829109 -0.000180 -0.047836 0.998855
-15.710788 7.215171 -1.821054 0.011856 -0.087509 0.996093
-14.635818 7.140987 -1.796938 -0.029261 0.025084 0.999257
-13.506463 7.183558 -1.753792 -0.024705 0.023132 0.999427
-12.445010 7.253337 -1.739651 -0.104643 0.234471 0.966475
-12.304372 7.457774 -1.737594 -0.026601 0.091635 0.995437
-11.581548 7.334721 -1.738534 -0.009834 0.028885 0.999534
-11.208776 7.221698 -1.745512 -0.042537 0.188976 0.981060
-10.480218 7.337484 -1.758407 0.020175 0.032847 0.999257
-6.587616 6.987561 -1.646051 -0.013428 -0.000255 0.999910
-5.866219 6.981603 -1.636982 -0.022231 -0.007044 0.999728
-5.831195 6.982508 -1.632978 -0.022912 -0.007862 0.999707
-4.872509 7.006982 -1.623888 0.021046 -0.070781 0.997270
-4.665238 7.056437 -1.608863 -0.009323 -0.106547 0.994264
-4.027574 7.135835 -1.631800 -0.010853 0.021199 0.999716
-3.599393 7.073822 -1.641777 0.007569 0.032750 0.999435
-3.085755 7.169613 -1.613728 -0.009271 -0.002079 0.999955
-2.636497 7.116616 -1.565706 -0.000827 0.067585 0.997713
-2.131925 7.174549 -1.608669 -0.012885 -0.010803 0.999859
-1.617335 7.237518 -1.593635 0.033789 -0.051430 0.998105
-1.061919 7.183488 -1.617616 0.015073 -0.023502 0.999610
-0.665437 7.243799 -1.620594 0.005264 -0.022497 0.999733
-0.071786 7.300846 -1.627568 -0.041898 -0.025803 0.998789
0.560732 7.244941 -1.695559 0.002765 0.015788 0.999872
0.937052 7.218450 -1.699554 0.031561 0.230768 0.972497
1.331291 7.113969 -1.613559 0.828528 0.256978 -0.497497
1.916753 7.032339 -1.566560 0.036519 -0.230423 0.972405
2.397391 7.244863 -1.578534 0.068018 0.205446 0.976302
2.866767 7.221466 -1.608534 0.054212 -0.100665 0.993442
3.356103 7.141110 -1.635542 0.049906 -0.086013 0.995043
3.801394 7.050834 -1.662551 0.229617 -0.029517 0.972833
4.349893 7.200480 -1.752537 0.117869 0.191366 0.974416
4.853215 7.160230 -1.734542 0.125935 0.182394 0.975127
5.342523 7.147011 -1.708546 0.117551 0.157042 0.980571
6.021005 7.342667 -1.714530 0.119962 0.146936 0.981845
6.249042 7.104686 -1.708555 0.121484 0.139697 0.982714
6.857385 7.167468 -1.709553 0.122391 0.127231 0.984293
7.410664 7.204299 -1.709553 0.122648 0.119017 0.985288
8.124049 7.468988 -1.736533 -0.140924 -0.257037 0.956071
8.265050 7.247079 -1.729555 -0.358556 -0.019648 0.933302
8.766214 7.074080 -1.664574 0.116387 0.092574 0.988880
9.525531 7.284822 -1.640560 0.120128 0.091581 0.988525
10.015683 7.206798 -1.604570 -0.172004 -0.037228 0.984392
10.261758 7.200764 -1.492572 0.989105 0.141567 0.040366
28.999310 7.103152 -1.484645 0.156548 -0.478875 0.863812
32.393482 7.229012 -1.462642 -0.327484 -0.318662 0.889499
32.720497 6.979244 -1.475658 -0.121207 -0.130001 0.984077
36.544651 7.320905 -1.453642 0.456681 0.241511 0.856221
36.770657 7.007201 -1.460662 0.369178 0.228660 0.900790
-19.023512 7.815629 -1.447337 0.677053 0.576037 0.458017
-18.443445 7.810891 -1.519266 0.449347 0.156146 0.879605
-18.105841 7.655037 -1.728257 0.240453 0.060666 0.968763
-17.687140 7.873588 -1.699159 0.753946 -0.591326 0.286181
-17.140186 7.828985 -1.764101 0.135307 -0.350267 0.926825
-16.640112 7.826492 -1.837040 -0.185581 -0.086136 0.978846
-16.302021 7.858357 -1.352992 0.989675 -0.143182 -0.006511
-14.322361 7.609687 -1.788804 -0.032460 0.062385 0.997524
-14.322361 7.609687 -1.788804 -0.032460 0.062385 0.997524
-13.497248 7.591234 -1.777709 -0.017942 0.060418 0.998012
-12.315495 7.758603 -1.760537 -0.003111 0.053113 0.998584
-11.315715 7.595760 -1.727453 0.031306 0.018687 0.999335
-11.016332 7.698822 -1.761399 0.050536 0.037183 0.998030
-10.391446 7.595065 -1.770348 0.018945 0.036549 0.999152
-10.293975 7.749687 -1.772309 0.014479 0.040877 0.999059
-8.633277 7.801888 -1.719121 -0.017431 0.038918 0.999090
-7.425800 7.800511 -1.687000 -0.011480 0.048207 0.998771
-7.299381 7.937104 -1.689965 -0.010469 0.049888 0.998700
-6.538465 7.774106 -1.673920 -0.020240 0.036347 0.999134
-5.651892 7.821744 -1.654833 -0.023919 0.039308 0.998941
-4.668370 7.807251 -1.633755 -0.018464 0.016505 0.999693
-2.877785 7.537079 -1.435667 0.309668 0.795693 -0.520556
-2.612582 7.527534 -1.649652 0.186953 0.394766 0.899560
-2.240066 7.634745 -1.647618 0.295031 -0.420194 0.858134
-0.901782 7.745199 -1.613545 0.018767 0.025398 0.999501
-0.549394 7.804604 -1.619527 0.024697 0.020853 0.999478
-0.117366 7.596917 -1.636537 -0.045446 0.002765 0.998963
0.555323 7.671948 -1.721513 0.021991 -0.065292 0.997624
0.893581 7.653501 -1.725508 0.000472 -0.073916 0.997264
1.334987 7.691945 -1.616497 -0.978295 -0.127265 0.163533
1.899388 7.651308 -1.494495 0.039174 -0.253874 0.966444
2.352740 7.644860 -1.518493 0.043775 -0.235052 0.970997
2.888108 7.601391 -1.545495 0.033101 -0.229489 0.972748
3.399446 7.552001 -1.576500 0.030203 -0.226543 0.973533
3.853878 7.699658 -1.644485 0.365875 -0.076624 0.927505
4.340156 7.633375 -1.762493 0.098003 0.175583 0.979574
4.816448 7.626107 -1.728496 0.088713 0.149639 0.984753
5.474932 7.810723 -1.723481 0.111593 0.157718 0.981159
5.784979 7.574670 -1.721506 0.108548 0.142373 0.983843
6.365326 7.671407 -1.718501 0.121013 0.146299 0.981811
6.925642 7.783165 -1.724494 0.106984 0.119409 0.987064
7.631987 7.883903 -1.726490 0.117644 0.121615 0.985581
7.854992 7.643961 -1.724514 0.119667 0.116256 0.985984
8.259174 7.713822 -1.670511 -0.409198 -0.064212 0.910183
9.286551 7.723598 -1.653518 0.124221 0.101395 0.987060
10.050809 7.777429 -1.601519 -0.606467 -0.250328 0.754674
10.162826 7.725435 -1.433524 0.962072 0.091192 0.257103
31.551460 7.824462 -1.428602 -0.102766 -0.865241 0.490711
32.100483 7.747530 -1.454609 -0.153114 -0.597446 0.787156
32.100483 7.747530 -1.454609 -0.153114 -0.597446 0.787156
34.456593 7.923349 -1.368601 0.067824 0.971714 -0.226211
36.011642 7.745507 -1.434615 0.034741 -0.288967 0.956709
36.242645 7.616628 -1.443624 0.156294 0.060374 0.985864
40.536793 7.905336 -1.387611 -0.490564 0.693400 0.527772
40.665794 7.797437 -1.391618 -0.411388 0.740880 0.530902
-24.058434 8.013750 -1.365928 0.135065 -0.969698 0.203576
-23.723246 8.067678 -1.346873 -0.159990 0.962700 -0.218200
-22.461403 7.974935 -1.436734 -0.067838 0.962328 -0.263292
-22.001341 8.319239 -1.415600 -0.175059 0.962427 -0.207576
-21.680212 8.353231 -1.395553 -0.083346 0.993086 -0.082667
-21.063078 8.380328 -1.356470 -0.094588 0.994304 -0.049124
-20.690838 8.445163 -1.444409 0.113416 -0.991418 0.065010
-20.158701 8.469551 -1.551338 0.060139 -0.996898 0.050765
-18.884531 8.136969 -1.565251 0.576394 -0.801820 0.157652
-18.621838 8.027237 -1.424242 -0.089416 0.995428 0.033587
-18.150282 8.197668 -1.395148 0.806168 -0.251204 -0.535715
-17.409399 8.112556 -1.684075 0.539043 -0.837851 -0.086242
-17.235128 8.196962 -1.672036 0.721906 -0.661182 -0.204181
-16.717550 8.372263 -1.633937 0.202149 0.892550 -0.403102
-13.583711 8.125115 -1.821613 0.033626 0.056933 0.997812
-12.361002 8.283392 -1.804442 -0.065988 0.065881 0.995643
-12.361002 8.283392 -1.804442 -0.065988 0.065881 0.995643
-11.413033 8.192671 -1.787352 0.010268 0.078400 0.996869
-10.921016 8.153263 -1.789305 0.011191 0.068576 0.997583
-10.827216 8.431826 -1.802244 0.004220 0.063789 0.997954
-10.137680 8.194975 -1.796212 -0.001307 0.041433 0.999140
-8.428425 8.086168 -1.726052 -0.104298 0.105569 0.988927
-8.290634 8.363652 -1.740992 -0.105749 0.108176 0.988491
-7.101541 8.225448 -1.703901 -0.110489 0.127898 0.985614
-6.156204 8.193941 -1.689821 -0.106275 0.142102 0.984130
-5.404190 8.050039 -1.663779 -0.034413 0.048091 0.998250
-5.076622 8.213168 -1.656729 0.001252 0.023185 0.999730
-4.486851 7.978768 -1.644717 -0.021119 0.023814 0.999493
-4.118328 8.109855 -1.633672 -0.086227 0.175973 0.980611
-3.620469 8.361658 -1.637606 -0.024245 0.047184 0.998592
-2.607359 8.112468 -1.623579 -0.069728 0.296822 0.952384
-2.135945 8.158496 -1.605549 -0.083619 0.424578 0.901522
-1.603384 8.260458 -1.601513 -0.038390 0.198789 0.979290
-1.117940 8.320570 -1.598487 -0.026108 0.201553 0.979129
-0.596399 8.428679 -1.609458 0.013825 0.022831 0.999644
0.102800 8.254560 -1.400459 0.958237 -0.090193 -0.271379
0.604174 8.251879 -1.720449 -0.020570 0.012435 0.999711
0.914346 8.216465 -1.718447 0.024635 0.215670 0.976155
1.307512 8.126974 -1.711451 0.222125 0.918904 0.326000
1.866806 8.051311 -1.403454 -0.261689 -0.542315 0.798382
2.323079 8.004844 -1.354455 -0.021331 -0.984599 -0.173520
3.040768 8.208176 -1.428432 -0.278333 -0.361849 0.889717
3.356842 8.072929 -1.349446 -0.032485 0.952453 -0.302949
3.721999 7.969692 -1.579457 0.531839 -0.206231 0.821350
4.277417 8.060311 -1.750449 -0.080153 -0.068008 0.994460
4.886921 8.289887 -1.739429 0.105800 0.175259 0.978821
5.494260 8.339546 -1.721428 0.114489 0.170174 0.978741
5.859290 8.094453 -1.722455 0.094378 0.131035 0.986875
6.408612 8.211178 -1.724447 0.099284 0.126506 0.986985
7.068014 8.444835 -1.732430 0.108554 0.129509 0.985618
7.347999 8.185849 -1.730458 0.117727 0.130711 0.984406
8.191348 8.251567 -1.721459 0.095993 0.109037 0.989392
9.024624 8.228368 -1.674468 0.129101 0.110109 0.985499
9.479767 8.228268 -1.636472 -0.070763 0.003411 0.997487
9.854849 8.133248 -1.611484 -0.059958 -0.000729 0.998201
10.136938 8.167169 -1.466483 0.992400 0.094423 0.078903
34.921612 7.972301 -1.389599 0.021843 0.993353 -0.113014
39.199780 8.348924 -1.340582 -0.006199 0.950309 -0.311248
40.109806 8.345922 -1.374583 -0.360858 -0.898409 0.250283
40.243797 8.110144 -1.378598 0.387512 0.916638 -0.098025
-20.566755 8.469765 -1.436388 -0.085192 0.994475 -0.061326
-18.466387 8.516376 -1.429120 0.496874 -0.536610 0.682031
-18.006952 8.647882 -1.400036 -0.289232 0.933751 -0.210842
-17.720263 8.520157 -1.604028 0.264098 -0.655920 0.707121
-17.007677 8.696848 -1.438905 0.328034 -0.843211 0.425897
-16.570513 8.725553 -1.636847 0.457995 -0.888894 0.010447
-14.380733 8.888877 -1.457557 0.389264 -0.921081 -0.009108
-14.242682 8.895480 -1.549540 0.848399 -0.454029 -0.272170
-12.335172 8.577127 -1.823384 -0.289937 0.014951 0.956929
-11.337173 8.494266 -1.803288 -0.010461 0.074924 0.997134
-10.787539 8.675570 -1.820196 -0.011937 0.035235 0.999308
-9.942460 8.621181 -1.815116 0.131683 -0.110149 0.985153
-9.679763 8.855311 -1.809049 0.433355 -0.308111 0.846918
-8.007704 8.681728 -1.746913 -0.106268 0.115267 0.987634
-7.754916 8.956925 -1.752846 0.256127 -0.141795 0.956187
-6.869584 8.562699 -1.722827 -0.086245 0.115949 0.989504
-6.698155 8.707193 -1.723790 -0.099783 0.130767 0.986379
-5.883375 8.477145 -1.702755 -0.095479 0.139775 0.985569
-5.579858 8.634325 -1.695708 -0.016924 0.066318 0.997655
-5.272159 8.872497 -1.703651 -0.082573 0.142024 0.986413
-4.544441 8.599779 -1.669636 -0.074699 0.146411 0.986399
-4.152781 8.806818 -1.672582 -0.072401 0.152186 0.985697
-3.772328 8.927926 -1.664542 -0.032246 0.042304 0.998584
-2.949740 8.519157 -1.618546 -0.014131 -0.009347 0.999856
-2.538283 8.624285 -1.614512 0.002756 -0.003494 0.999990
-2.114818 8.734426 -1.613479 -0.042870 0.178519 0.983002
-1.670403 8.816568 -1.611450 -0.037619 0.199504 0.979175
-1.248911 8.954797 -1.624419 -0.023452 0.177300 0.983877
-0.793634 8.964007 -1.616403 -0.015813 0.189731 0.981709
0.091570 8.770571 -1.353402 0.991554 0.075679 -0.105325
0.593671 8.607892 -1.728410 -0.036399 -0.024141 0.999046
0.884744 8.525499 -1.716414 0.025541 0.227875 0.973355
1.313380 8.802950 -1.703379 -0.022900 -0.047182 0.998624
3.275659 8.966907 -1.724353 0.067821 0.179777 0.981367
4.020942 8.867330 -1.761365 0.079761 0.175004 0.981332
4.405943 8.644103 -1.754390 0.086784 0.169765 0.981656
4.892307 8.805756 -1.737376 0.090125 0.161596 0.982733
5.466608 8.863409 -1.723374 0.108557 0.171301 0.979220
5.851604 8.614284 -1.723402 0.113065 0.166326 0.979567
6.511031 8.855901 -1.729383 0.087368 0.117959 0.989168
6.857028 8.623842 -1.733410 0.099061 0.123423 0.987397
7.601460 8.910450 -1.735388 0.103879 0.121167 0.987182
7.862442 8.705452 -1.738411 0.111253 0.127719 0.985551
8.619747 8.829164 -1.693406 0.094741 0.100566 0.990409
8.775704 8.629219 -1.688427 0.102267 0.102242 0.989489
9.247896 8.743040 -1.661421 -0.073527 0.021699 0.997057
10.053106 8.715866 -1.502431 0.974205 0.083133 0.209793
10.148082 8.573934 -1.593445 0.942408 0.142033 0.302809
-16.642124 9.223379 -1.545756 0.973648 0.227494 0.015987
-16.134632 9.376749 -1.511666 0.295616 0.949665 0.103667
-15.260586 8.993407 -1.424639 0.016579 0.886488 -0.462453
-14.708295 9.059754 -1.600562 0.348610 -0.935501 0.057520
-14.130042 9.114019 -1.662486 0.838964 -0.525165 -0.142627
-13.477738 9.182062 -1.706399 0.876511 -0.208468 -0.433901
-13.313682 9.192572 -1.691379 0.663189 -0.741018 -0.105226
-12.360479 9.207747 -1.507270 -0.216197 0.967207 0.133301
-12.044572 9.147878 -1.567247 0.701555 -0.712224 -0.023612
-10.880791 9.344428 -1.632089 0.314593 0.948917 -0.024247
-10.570049 9.220604 -1.592078 0.033371 -0.988107 -0.150104
-10.176721 9.307454 -1.657023 -0.058383 0.998226 0.011721
-9.584433 9.363753 -1.604954 0.064893 -0.996706 -0.048634
-9.096208 9.403371 -1.561900 0.133196 -0.987591 -0.083207
-8.612960 9.451015 -1.521847 0.088096 -0.995646 -0.030454
-8.125824 9.447700 -1.562803 0.096166 -0.989959 0.103605
-7.575941 9.324306 -1.779773 0.370770 -0.372374 0.850804
-6.443333 9.002432 -1.738724 0.117323 -0.054678 0.991587
-6.201459 9.330714 -1.760657 0.045638 -0.190402 0.980645
-5.832007 9.467745 -1.746609 0.141805 -0.690472 0.709323
-5.109534 9.113044 -1.725606 0.026601 0.016944 0.999503
-4.631608 9.439837 -1.738529 -0.020812 -0.274185 0.961452
-4.221579 9.374888 -1.696512 0.017189 -0.137514 0.990351
-3.562034 9.017445 -1.664518 -0.028148 0.043704 0.998648
-3.117589 9.126465 -1.655480 -0.036483 0.052264 0.997967
-2.488829 9.355145 -1.662421 -0.010344 0.036964 0.999263
-2.203730 9.334578 -1.646411 -0.011394 0.051628 0.998601
-1.800278 9.472799 -1.656379 -0.004520 0.024796 0.999682
-0.911626 9.008208 -1.627402 0.006231 0.017502 0.999827
-0.571383 9.038639 -1.628389 0.003670 -0.031582 0.999494
-0.144121 9.050959 -1.627377 -0.280065 0.019553 0.959782
1.508313 9.438698 -1.726309 -0.137687 -0.838363 0.527437
1.808419 9.406346 -1.730310 0.034982 0.195258 0.980128
2.364603 9.333741 -1.740315 0.043400 0.187568 0.981292
3.105092 9.457012 -1.803301 0.054899 0.171849 0.983592
3.333033 9.303823 -1.789317 0.065707 0.179636 0.981536
3.760009 9.076497 -1.778342 -0.019094 -0.012782 0.999736
4.403362 9.139006 -1.750339 0.079773 0.166018 0.982891
4.882705 9.299649 -1.739325 0.089036 0.164438 0.982361
5.272639 9.017476 -1.729357 0.104583 0.173153 0.979327
5.886065 9.256073 -1.725337 0.076218 0.120139 0.989827
6.241048 9.041961 -1.728362 0.098254 0.143497 0.984761
7.007545 9.375501 -1.734335 0.086940 0.115336 0.989515
7.367502 9.119452 -1.737365 0.089072 0.109399 0.989999
8.137923 9.427043 -1.711342 0.105546 0.115818 0.987647
8.290816 9.160108 -1.695370 0.110357 0.118943 0.986749
9.010067 9.243853 -1.688369 -0.073194 0.007472 0.997290
9.332142 9.221773 -1.659375 -0.076047 0.009281 0.997061
10.038314 9.212597 -1.543383 0.938260 0.071811 -0.338396
10.182432 9.407448 -1.338365 -0.869105 -0.367155 0.331441
-16.643440 9.823976 -1.695638 0.812905 0.581276 0.036103
-16.247135 9.555981 -1.648644 0.399068 0.915861 0.044078
-13.983433 9.690228 -1.788361 0.234549 -0.237821 0.942564
-13.686602 9.611404 -1.755343 0.287573 -0.213867 0.933575
-13.274979 9.824047 -1.629259 0.744976 0.326958 -0.581472
-12.610768 9.864087 -1.573180 0.975664 -0.208463 -0.067997
-8.042747 9.469466 -1.557792 -0.039340 0.979143 -0.199326
