ply
format ascii 1.0
element vertex 820
property float x
property float y
property float z
property float nx
property float ny
property float nz
end_header
-6.436660 -16.044252 -1.913596 -0.043539 -0.110493 0.992923
-5.823039 -15.605110 -1.922026 -0.042566 -0.114106 0.992556
-5.628153 -15.753378 -1.930948 0.056206 -0.026921 0.998056
-1.886109 -15.935525 -1.954657 -0.013919 -0.129298 0.991508
-1.454119 -15.890874 -1.941808 -0.012848 -0.150710 0.988495
-0.962342 -15.985771 -1.949878 -0.012717 -0.149644 0.988658
1.039243 -15.614913 -2.005753 0.009492 -0.138121 0.990370
1.442161 -15.749502 -2.029783 -0.020764 -0.061411 0.997897
48.741074 -15.573498 -2.068148 0.043704 -0.012593 0.998965
-5.946165 -15.489867 -1.914092 -0.042565 -0.114106 0.992556
-5.091992 -15.102570 -1.941531 0.059634 -0.006133 0.998202
-1.850201 -15.093145 -1.944279 -0.034205 0.005144 0.999402
-1.655124 -15.063021 -1.937353 -0.032452 0.007376 0.999446
-0.781442 -15.073888 -1.928592 -0.010192 -0.153007 0.988173
-0.476554 -15.125854 -1.933643 0.012667 0.173393 -0.984771
0.041224 -15.251882 -1.950707 -0.006188 -0.160347 0.987041
0.521873 -15.433468 -1.976723 -0.006103 0.136083 -0.990679
1.200625 -15.074523 -2.000196 0.010331 -0.144253 0.989487
1.572083 -15.239437 -2.028195 -0.374329 0.009676 0.927245
2.214531 -15.226286 -1.969412 0.044819 0.020922 0.998776
2.734349 -15.141397 -1.968644 -0.042673 -0.024578 0.998787
48.503483 -15.163802 -2.052291 0.043722 -0.012461 0.998966
-5.766605 -14.577031 -1.906809 -0.064978 -0.143436 0.987524
-5.450520 -14.851524 -1.926654 -0.044910 -0.122369 0.991468
-1.760382 -14.614176 -1.942651 -0.033646 0.004733 0.999423
-1.458136 -14.594906 -1.934748 -0.033174 0.008368 0.999415
-0.989224 -15.014996 -1.921575 -0.010712 -0.148352 0.988877
-0.476460 -14.606825 -1.927020 -0.005497 -0.145558 0.989334
0.070918 -14.722572 -1.942100 -0.002242 -0.155628 0.987813
0.534204 -14.855328 -1.963146 0.001714 0.163110 -0.986606
0.937291 -15.014779 -1.989157 -0.012928 0.131474 -0.991235
1.754662 -14.946940 -1.989467 0.910486 -0.399578 0.106551
1.864169 -14.687058 -1.953691 -0.868931 0.387111 -0.308390
2.542459 -14.689879 -1.968910 -0.031905 0.107900 0.993650
2.922672 -14.730088 -1.917006 -0.016065 0.038457 0.999131
3.353137 -14.832093 -1.943073 0.019876 0.018311 0.999635
42.418961 -14.791527 -2.047165 0.570852 0.248406 0.782574
48.412018 -14.803824 -2.044420 0.043704 -0.012366 0.998968
-4.966244 -14.170387 -1.920249 0.026833 -0.020044 0.999439
-1.019417 -14.539292 -1.920911 -0.010651 -0.158156 0.987357
0.710188 -14.078725 -1.951766 -0.002635 0.166393 -0.986056
1.048381 -14.195802 -1.972787 0.015760 -0.133684 0.990899
1.503424 -14.296009 -1.994860 0.016016 -0.149376 0.988651
1.942722 -14.202501 -1.988070 -0.684990 0.611461 0.396112
2.444342 -14.092707 -1.983314 0.055077 -0.259048 0.964293
3.119780 -14.504788 -1.958235 -0.010727 0.030870 0.999466
42.231415 -14.210739 -2.029383 0.570853 0.248407 0.782574
42.345520 -14.470297 -2.039287 0.570853 0.248407 0.782574
48.642735 -14.295666 -2.047612 0.043567 -0.012297 0.998975
-5.223879 -13.988976 -1.908340 -0.048153 -0.128719 0.990511
-4.855539 -13.668186 -1.913644 0.031761 -0.019162 0.999312
-4.675048 -13.769716 -1.918601 0.033152 -0.023368 0.999177
-1.716942 -13.942720 -1.946151 -0.040727 0.009784 0.999122
-1.471329 -13.914051 -1.937239 0.016325 0.142641 -0.989640
-0.983367 -13.828899 -1.917437 -0.009134 -0.166494 0.986000
-0.464797 -13.840667 -1.914580 -0.009585 -0.184420 0.982801
0.052548 -13.933699 -1.927667 0.001755 0.158991 -0.987279
0.422960 -14.002287 -1.938732 -0.003443 -0.180814 0.983511
2.242877 -13.673221 -1.915554 -0.744433 0.562213 -0.360190
2.677464 -14.003024 -1.976456 -0.111013 0.585783 -0.802829
2.951137 -13.902114 -1.969619 -0.275345 0.887702 -0.369013
42.077972 -13.867651 -2.016508 0.570852 0.248407 0.782574
48.862839 -13.865088 -2.051772 0.043567 -0.012297 0.998975
-4.504376 -13.090809 -1.917138 0.025350 -0.008431 0.999643
2.193681 -13.108707 -1.975949 0.025074 -0.150602 0.988277
3.570713 -13.386141 -1.915200 -0.560079 0.813806 -0.155021
37.443729 -13.326186 -2.039501 0.911186 0.221285 0.347525
41.254192 -13.099002 -1.965764 0.048485 -0.014399 0.998720
41.292854 -13.253139 -1.969708 0.352524 0.134222 0.926127
49.131050 -13.197875 -2.056010 0.043567 -0.012297 0.998975
-4.633152 -13.000583 -1.911183 -0.047435 -0.132059 0.990106
1.251991 -12.805062 -1.908864 0.019396 -0.143367 0.989479
1.548607 -12.932668 -1.933867 -0.020436 0.146757 -0.988962
1.987235 -12.983258 -1.950973 0.024069 -0.150669 0.988291
2.572148 -12.885992 -1.952236 0.031249 -0.156835 0.987130
2.817810 -12.766311 -1.941405 -0.051281 -0.327678 0.943397
37.272762 -12.678757 -2.018749 0.884060 0.241050 0.400415
37.362759 -12.904505 -2.027665 0.901613 0.231336 0.365482
41.265568 -12.960773 -1.964816 0.048421 -0.014305 0.998725
41.301350 -12.690285 -1.961918 0.048397 -0.014168 0.998728
49.268856 -12.905542 -2.058112 0.043567 -0.012297 0.998975
1.767072 -12.068022 -1.922568 -0.026139 0.156221 -0.987376
2.028404 -12.136055 -1.940604 0.025872 -0.168172 0.985418
2.509777 -12.200596 -1.965716 -0.211355 0.699184 0.682987
4.180846 -12.236116 -1.918241 0.260651 0.128299 0.956870
4.355264 -12.125237 -1.911378 0.284067 0.081646 0.955322
33.824337 -12.096378 -2.015812 0.062962 -0.017919 0.997855
37.184471 -12.389364 -2.008858 0.900578 0.245528 0.358714
41.723450 -12.322327 -1.977067 0.048626 -0.014085 0.998718
41.845318 -12.074721 -1.980160 0.046577 -0.012734 0.998833
1.666579 -12.027794 -1.913565 -0.020513 0.170603 -0.985126
2.920140 -12.000864 -1.947998 -0.569685 0.320026 0.756996
33.754940 -11.598118 -2.001006 0.062961 -0.017919 0.997855
33.804138 -11.851719 -2.008909 0.062962 -0.017919 0.997855
36.979675 -11.746956 -1.987093 0.056248 -0.016038 0.998288
41.954201 -11.823143 -1.981251 0.043650 -0.010699 0.998990
-3.884588 -11.466425 -1.911463 0.043537 -0.008881 0.999012
2.141678 -11.371347 -1.919200 0.033717 -0.158761 0.986741
2.494664 -11.388888 -1.935304 0.036080 -0.167673 0.985182
3.047645 -11.282313 -1.939565 -0.434909 0.155047 0.887026
4.007065 -11.444598 -1.910762 0.301712 0.101153 0.948018
28.141356 -11.224958 -2.026855 -0.238141 -0.327879 0.914212
33.671459 -11.276900 -1.990128 0.062962 -0.017919 0.997855
36.873898 -11.334278 -1.975242 0.055550 -0.015986 0.998328
42.192310 -11.393582 -1.987407 0.276181 -0.137926 0.951158
42.291237 -11.138043 -1.989496 0.300234 -0.146544 0.942541
2.231550 -10.848825 -1.913611 0.035374 -0.170968 0.984641
2.316619 -10.834242 -1.914650 0.018340 -0.348457 0.937146
28.112202 -11.010109 -2.019945 -0.238141 -0.327879 0.914212
30.184042 -10.682580 -1.997195 0.529653 0.095098 0.842867
33.551174 -10.772715 -1.973315 0.062922 -0.017741 0.997861
37.080524 -10.830110 -1.978432 0.055681 -0.015942 0.998321
42.466412 -10.689620 -1.992649 0.342182 -0.161698 0.925616
2.449574 -10.267515 -1.911108 -0.163417 0.103254 0.981139
25.588968 -10.200867 -2.005138 0.952272 0.304319 -0.023824
28.094130 -10.252204 -1.999261 -0.097742 -0.015816 0.995086
30.140142 -10.297703 -1.986345 0.475424 0.067263 0.877181
33.429718 -10.218831 -1.956517 0.061106 -0.017811 0.997972
37.272015 -10.508924 -1.983552 0.057175 -0.016379 0.998230
37.412773 -10.233490 -1.987652 0.051684 -0.013390 0.998574
40.963364 -10.448071 -1.916686 0.209866 -0.173565 0.962201
3.673631 -9.896506 -1.910784 -0.233123 0.711544 0.662842
21.821142 -9.627640 -1.987139 -0.211235 -0.189233 0.958943
25.595903 -9.835823 -1.995294 -0.633404 0.007889 -0.773781
28.019756 -9.781790 -1.982446 0.392594 0.170112 0.903843
30.044516 -9.744782 -1.967554 0.068108 -0.020469 0.997468
33.643536 -9.769361 -1.961687 0.061236 -0.017491 0.997970
37.629829 -9.790028 -1.992808 0.051682 -0.013389 0.998574
3.159812 -9.481575 -1.918919 0.212791 0.551079 0.806866
3.316646 -9.411760 -1.916022 0.342663 -0.530603 0.775269
21.827145 -9.306315 -1.976285 -0.113278 -0.067104 0.991295
23.559486 -9.286101 -1.972407 0.184824 -0.010177 0.982719
25.607161 -9.338519 -1.982501 0.668984 -0.017455 0.743072
27.927462 -9.311400 -1.964627 0.075043 -0.021792 0.996942
29.891695 -9.335090 -1.949702 0.067733 -0.020166 0.997500
33.923454 -9.335820 -1.970848 0.052532 -0.012493 0.998541
37.758648 -9.509643 -1.995904 0.051689 -0.013392 0.998573
37.798180 -9.394308 -1.996943 0.051689 -0.013392 0.998573
-2.922028 -8.646125 -1.909743 0.042024 -0.039531 0.998334
3.270931 -8.932354 -1.910357 0.072083 -0.201000 0.976936
3.481120 -8.941278 -1.927420 -0.034968 0.067005 0.997140
3.913324 -8.668480 -1.909757 -0.047160 0.224296 0.973379
18.655979 -8.592742 -1.939378 0.238404 -0.102866 0.965703
20.095507 -8.754568 -1.948412 0.544097 -0.175236 0.820518
21.881069 -8.809934 -1.963508 0.996786 -0.060494 0.052515
23.557850 -8.821609 -1.957602 0.563959 -0.014598 0.825674
25.563499 -8.828326 -1.965704 0.652148 0.011079 0.758011
27.821793 -8.748556 -1.944836 0.072950 -0.021754 0.997098
30.037167 -8.818004 -1.948897 0.068624 -0.019783 0.997446
34.168972 -8.776031 -1.977044 0.054260 -0.012709 0.998446
3.624466 -8.447036 -1.916827 0.001907 -0.017883 0.999838
16.426304 -8.142649 -1.942408 0.003702 0.084145 0.996447
17.145525 -8.388192 -1.913351 0.070139 -0.204898 0.976267
17.531616 -8.074688 -1.936533 -0.013094 0.058250 0.998216
18.763577 -8.255464 -1.935543 0.381309 -0.109076 0.917990
18.781923 -8.158964 -1.933588 0.511538 -0.136341 0.848375
20.144564 -8.294980 -1.935621 0.976906 -0.013084 0.213270
21.914104 -8.310615 -1.949723 0.068540 -0.031757 0.997143
23.535862 -8.273612 -1.940825 0.066262 -0.028944 0.997382
25.503950 -8.321152 -1.948899 0.083002 -0.024002 0.996260
27.929588 -8.306050 -1.943003 0.074541 -0.021815 0.996979
30.261229 -8.424239 -1.956043 0.057440 -0.014186 0.998248
30.367950 -8.147821 -1.959141 0.052027 -0.011426 0.998580
34.259647 -8.457871 -1.978151 0.058166 -0.013879 0.998210
34.304562 -8.185455 -1.976239 0.060077 -0.014245 0.998092
-1.782664 -7.989963 -1.924470 -0.050618 -0.232490 0.971281
-1.636091 -7.649265 -1.914754 0.083810 -0.136771 0.987051
3.862680 -7.573029 -1.907538 -0.035452 0.145957 0.988656
14.711534 -7.646667 -1.916496 -0.002006 0.222329 0.974970
15.534455 -7.754865 -1.927518 0.105922 -0.030231 0.993915
16.240704 -7.861116 -1.908529 0.093769 -0.028026 0.995199
16.479626 -7.631230 -1.921658 0.930438 -0.148424 -0.335045
17.598713 -7.808054 -1.931662 0.276710 0.104801 0.955222
18.848360 -7.771995 -1.923766 0.073871 -0.036123 0.996613
20.187302 -7.764818 -1.920852 0.991712 -0.041879 -0.121465
21.895241 -7.799412 -1.931932 -0.079935 0.030462 -0.996335
23.473417 -7.801239 -1.923008 0.083369 -0.026361 0.996170
25.480537 -7.831905 -1.935082 0.081969 -0.023916 0.996348
28.180328 -7.857597 -1.952171 0.062502 -0.015096 0.997931
28.306917 -7.560302 -1.955277 0.060980 -0.013920 0.998042
30.513088 -7.729237 -1.961286 0.051554 -0.010978 0.998610
34.510918 -7.780818 -1.983370 0.058918 -0.013868 0.998167
41.356678 -8.039159 -1.909428 -0.094821 0.992333 -0.079270
-1.524048 -7.323984 -1.909019 0.086277 -0.145853 0.985537
3.990809 -7.506623 -1.907626 -0.148385 0.084342 0.985327
13.070979 -7.170592 -1.907576 -0.011336 0.169857 0.985403
13.936707 -7.289696 -1.917601 -0.052163 0.156462 0.986305
14.755877 -7.436695 -1.909605 -0.955198 0.243738 0.167896
15.626965 -7.291191 -1.913750 0.897995 -0.274533 0.343855
16.529367 -7.312869 -1.911810 -0.771047 0.162095 0.615801
17.681213 -7.290765 -1.917901 0.083089 -0.039087 0.995775
18.880861 -7.375118 -1.911940 0.078420 -0.036158 0.996264
20.189413 -7.442573 -1.909987 0.066597 -0.033063 0.997232
21.856911 -7.364823 -1.916103 0.092150 -0.028468 0.995338
23.462719 -7.273207 -1.908208 0.084899 -0.025560 0.996062
25.711958 -7.335717 -1.942269 0.074979 -0.020575 0.996973
25.827812 -7.108019 -1.946353 0.067074 -0.016427 0.997613
28.412539 -7.257053 -1.957381 0.061184 -0.013759 0.998032
30.696108 -7.267918 -1.966439 0.066306 -0.015198 0.997684
33.962330 -7.268836 -1.943512 0.091639 -0.013982 0.995694
34.392849 -7.472630 -1.972460 0.059002 -0.013353 0.998169
36.917290 -7.060026 -1.920627 0.253428 0.698402 -0.669335
12.013702 -6.774923 -1.910670 0.049566 0.169935 0.984208
13.988710 -7.040915 -1.908731 0.121033 -0.059706 0.990851
17.706411 -7.011260 -1.909024 0.079359 -0.037720 0.996132
23.650257 -6.808841 -1.912383 0.088998 -0.026335 0.995684
25.963127 -6.755054 -1.949477 0.061877 -0.013869 0.997987
28.558634 -6.821586 -1.960526 0.073303 -0.017359 0.997159
30.769144 -7.032297 -1.967514 0.065599 -0.014864 0.997735
30.893841 -6.707207 -1.970616 0.065569 -0.014650 0.997741
33.744713 -6.782711 -1.924649 0.575092 0.179743 0.798099
33.790108 -6.902004 -1.928616 0.529226 0.239695 0.813920
36.824883 -6.922843 -1.913663 0.253428 0.698402 -0.669335
22.158018 -6.068172 -1.908592 0.075044 -0.018573 0.997007
23.775805 -6.525465 -1.916487 0.066053 -0.015750 0.997692
23.875561 -6.272923 -1.918576 0.059644 -0.012781 0.998138
26.132780 -6.236075 -1.952651 0.075636 -0.017306 0.996985
28.732637 -6.344385 -1.964678 0.070744 -0.015403 0.997376
28.798937 -6.170411 -1.967732 0.070916 -0.015438 0.997363
30.367226 -6.196232 -1.928755 0.066506 -0.013631 0.997693
33.676037 -6.278707 -1.914789 0.468372 0.170928 0.866840
33.790791 -6.518281 -1.924725 0.539741 0.171083 0.824263
-1.003868 -5.557144 -1.908438 0.062193 0.022145 0.997818
22.231825 -5.828559 -1.909676 0.074461 -0.018059 0.997060
22.288824 -5.620769 -1.909747 0.072573 -0.017031 0.997218
24.026327 -5.794709 -1.921737 0.070701 -0.015561 0.997376
26.259584 -5.964667 -1.957739 0.081822 -0.018975 0.996466
26.350576 -5.726074 -1.960813 0.075424 -0.015639 0.997029
28.516964 -5.599796 -1.938892 0.071889 -0.014047 0.997314
28.981100 -5.972580 -1.977794 0.070951 -0.015157 0.997365
30.171957 -5.813508 -1.909861 -0.032007 -0.068431 0.997142
22.390377 -5.313568 -1.911849 0.091787 -0.021422 0.995548
24.173208 -5.313541 -1.924891 0.086691 -0.018741 0.996059
26.530806 -5.290656 -1.967944 0.077222 -0.016013 0.996885
28.200754 -5.219069 -1.910993 0.074612 -0.011325 0.997148
28.377438 -5.434780 -1.925936 0.072948 -0.013052 0.997250
22.541067 -4.794635 -1.915012 0.080643 -0.015875 0.996617
24.279501 -4.901985 -1.927014 0.082494 -0.016608 0.996453
24.379614 -4.684284 -1.932078 0.082909 -0.016242 0.996425
26.002277 -4.805552 -1.919071 0.078362 -0.014518 0.996819
-1.340225 -4.156510 -1.929381 0.208798 0.214516 0.954142
-1.064031 -4.298011 -1.909339 -0.081187 0.111916 0.990396
22.681047 -4.309532 -1.919154 0.088664 -0.016841 0.995919
22.931980 -4.061027 -1.938226 0.088527 -0.016546 0.995936
24.495193 -4.587862 -1.940107 0.082862 -0.016106 0.996431
21.220016 -3.589863 -1.912326 0.095060 -0.016853 0.995329
22.844692 -3.972559 -1.929248 0.088667 -0.016298 0.995928
21.222761 -3.522272 -1.911344 0.095060 -0.016853 0.995329
-28.331152 6.185110 -1.911705 -0.049835 0.004063 0.998749
-30.537262 6.705206 -1.924358 -0.053570 0.008095 0.998531
-34.519161 7.308644 -1.953321 0.795836 -0.548373 -0.256770
-30.329138 7.106027 -1.915961 -0.053570 0.008095 0.998531
-30.187468 7.370875 -1.910703 -0.053313 0.007989 0.998546
-34.447464 7.687179 -1.953902 0.795837 -0.548373 -0.256770
-30.105341 7.549335 -1.907526 -0.060452 0.012207 0.998096
-34.087070 8.221360 -1.939403 0.203605 -0.160230 0.965853
-33.781597 8.651184 -1.927014 0.213205 -0.183080 0.959700
-33.600616 8.940166 -1.920747 -0.051024 0.008496 0.998661
-38.013668 9.360789 -1.981762 0.703565 -0.640064 0.308728
-33.449474 9.123294 -1.914592 -0.058455 0.014896 0.998179
-37.807308 9.497105 -1.971675 0.703566 -0.640064 0.308729
-37.551975 9.807544 -1.962408 0.703566 -0.640064 0.308729
-37.305775 10.053514 -1.952214 -0.295194 0.266314 0.917572
-37.024754 10.349559 -1.940977 -0.056672 0.016793 0.998252
-42.394966 10.578341 -1.958876 -0.047487 0.011918 0.998801
-42.199219 10.738729 -1.950760 -0.047485 0.011916 0.998801
-36.790691 10.531124 -1.930855 -0.055686 0.015962 0.998321
-36.509876 10.758558 -1.918699 -0.055975 0.016307 0.998299
-41.903389 11.081222 -1.940471 -0.047486 0.011917 0.998801
-41.610809 11.352175 -1.930265 -0.047484 0.011915 0.998801
-36.387230 11.217779 -1.919234 -0.056146 0.016771 0.998282
-32.753368 11.166231 -1.908583 -0.049995 0.017089 0.998603
-32.699951 11.376130 -1.909377 -0.049995 0.017089 0.998603
-41.377220 11.565569 -1.921106 -0.048941 0.013740 0.998707
-41.123775 11.771632 -1.911963 -0.048746 0.013783 0.998716
-36.310379 11.754484 -1.923673 -0.043460 0.014297 0.998953
-32.667427 11.593392 -1.911156 -0.049995 0.017089 0.998603
-28.852753 11.615317 -1.908538 -0.275971 0.150166 0.949363
-48.068329 12.088881 -1.966216 -0.044228 0.012806 0.998939
-47.653408 12.379381 -1.952026 -0.044232 0.012810 0.998939
-36.234688 11.979863 -1.923455 -0.043821 0.014359 0.998936
-36.145088 12.262686 -1.924181 -0.043824 0.014359 0.998936
-47.383266 12.624892 -1.942841 -0.044229 0.012807 0.998939
-47.181877 12.886630 -1.936614 -0.044229 0.012807 0.998939
-35.997776 12.715541 -1.923748 -0.043821 0.014359 0.998936
-46.938049 13.056067 -1.928508 -0.043514 0.012077 0.998980
-46.665104 13.293587 -1.919336 -0.043647 0.012307 0.998971
-35.889332 12.993055 -1.923491 -0.043821 0.014359 0.998936
-55.153465 13.789181 -1.949858 -0.263098 0.344192 0.901283
-54.761459 14.145749 -1.937585 -0.263098 0.344192 0.901283
-54.469639 14.433614 -1.929358 -0.263098 0.344192 0.901283
-54.302368 14.569683 -1.924262 -0.263098 0.344192 0.901283
-53.953922 14.837587 -1.914080 -0.253458 0.330243 0.909230
-45.468346 16.556622 -1.910206 -0.038406 0.012278 0.999187
-13.278121 17.874601 -2.098063 0.561474 0.305284 0.769122
-13.175618 17.852978 -2.090137 0.561474 0.305284 0.769122
-13.485318 18.071461 -1.988794 -0.354353 -0.661214 0.661233
-13.953699 18.460352 -2.046230 0.899781 0.373218 0.226059
-20.640253 -61.418152 -1.436142 0.318090 -0.053131 0.946571
-19.001993 -56.144382 -1.648376 0.960131 -0.276969 0.037900
-18.158709 -53.120716 -1.549786 0.940027 -0.336997 0.052750
-8.755779 -46.124283 -1.848912 0.563643 0.447922 -0.694027
-8.355584 -45.576630 -1.822409 0.763276 -0.627945 0.151967
-8.144135 -45.565929 -1.545468 0.895325 -0.440849 0.063600
-5.189847 -45.785511 -1.538063 0.958180 -0.084645 -0.273362
-8.190609 -45.477707 -1.816521 0.763275 -0.627946 0.151969
-5.013784 -44.961792 -1.774709 0.934791 -0.318026 0.158196
-4.829669 -44.476578 -1.487111 0.913484 -0.383361 0.136312
-4.714332 -44.167530 -1.739367 0.918383 -0.368882 0.143174
-4.621135 -43.837307 -1.462632 0.942702 -0.299578 0.146852
-4.500462 -43.462196 -1.706937 0.954336 -0.268685 0.130583
-4.361128 -42.651482 -1.416564 0.957612 -0.259777 0.124484
-4.045786 -41.643261 -1.626383 0.953662 -0.216696 -0.208739
-6.901853 -40.948303 -1.850146 -0.080203 0.104665 0.991268
-14.230216 -40.341248 -1.413039 0.957794 -0.286746 -0.020182
-14.084404 -39.773823 -1.641489 0.958045 -0.286527 -0.007230
-13.433363 -37.760166 -1.549110 0.900633 -0.186044 0.392745
-12.989392 -36.342171 -1.706249 0.975517 -0.182474 0.122760
-5.593301 -36.318748 -1.847851 -0.264181 -0.268282 0.926409
-12.931936 -36.007389 -1.469510 0.971341 -0.219195 0.091924
-4.852435 -35.574402 -1.800583 0.050823 0.919637 -0.389466
-4.528602 -35.689793 -1.804584 0.209315 0.967319 -0.143111
-12.518779 -34.689953 -1.855569 0.869967 -0.355944 0.341265
-3.446651 -35.007809 -1.536369 -0.905203 0.244853 0.347354
-12.386102 -34.322155 -1.601867 0.889188 -0.321977 0.325077
-12.081904 -33.158710 -1.542792 0.559931 0.828538 -0.001122
-12.233925 -32.943123 -1.758929 -0.169959 0.912943 -0.371011
-12.117751 -32.937332 -1.532952 0.921222 -0.217868 0.322310
-11.292714 -30.282875 -1.601085 0.830019 -0.010597 0.557634
-11.023662 -29.291809 -1.543874 0.658555 -0.039496 0.751496
-10.931683 -29.026861 -1.694089 0.677250 -0.156041 0.719016
-10.723834 -28.078608 -1.635836 0.958000 -0.127913 0.256660
-10.639015 -28.117413 -1.635821 0.958000 -0.127913 0.256660
-10.647736 -28.037441 -1.471880 0.958000 -0.127913 0.256660
-10.540519 -27.373722 -1.795397 0.721069 -0.372635 0.584125
-9.851721 -26.534895 -1.865141 0.405606 -0.234026 0.883581
-10.009810 -25.770435 -1.680691 0.956341 -0.037771 0.289802
-2.480789 -25.860529 -1.566281 -0.850602 0.497998 0.168741
-9.799592 -25.074106 -1.764250 0.838435 -0.402449 0.367508
-2.335963 -25.423058 -1.661638 0.883263 -0.466413 -0.048021
-9.807024 -25.025124 -1.628285 0.838435 -0.402449 0.367508
-9.410852 -24.995787 -1.748371 0.354037 0.030037 0.934749
-9.323607 -24.106304 -1.855055 0.838749 -0.107216 0.533859
-9.113788 -24.236326 -1.858992 0.624748 -0.045210 0.779517
-1.989518 -24.466568 -1.891429 0.190451 0.112171 0.975267
-9.400606 -23.730471 -1.662327 0.971314 -0.109756 0.210956
-1.923797 -23.961731 -1.709814 -0.935754 0.150458 0.318946
2.270544 -23.678106 -1.534279 0.866172 -0.295689 0.402882
2.421345 -23.566959 -1.683408 -0.852355 0.320955 -0.412891
-9.221638 -23.308418 -1.793673 0.939369 -0.243371 0.241571
-1.723372 -23.319588 -1.658337 0.934117 -0.342889 -0.099259
-1.642889 -23.223743 -1.650429 0.927962 -0.363562 -0.081911
2.168012 -23.544880 -1.408344 0.868061 -0.398115 0.296606
2.377762 -23.269207 -1.505610 0.898572 -0.315552 0.304952
-9.098197 -22.793051 -1.752082 0.703852 -0.240892 0.668254
-8.619602 -22.764563 -1.875180 0.327747 -0.035084 0.944114
-7.398356 -22.612877 -1.535508 -0.571383 0.701883 0.425303
-1.447844 -22.642778 -1.732906 0.853198 -0.520798 0.028672
2.490585 -22.619270 -1.459119 0.994080 -0.101500 -0.038754
-8.813226 -22.121664 -1.830634 0.841825 -0.216940 0.494234
-7.344420 -22.531456 -1.820578 -0.801388 0.384631 0.458078
-1.336004 -22.401510 -1.583113 -0.604900 0.738784 0.297142
-0.971770 -22.297907 -1.701293 0.170857 0.962959 0.208610
-0.662136 -22.405838 -1.710305 0.592958 0.761760 0.261004
2.538107 -22.401882 -1.444293 0.996161 -0.087539 0.000797
-8.677340 -21.557035 -1.648082 0.892574 -0.305656 0.331492
-8.064492 -21.546797 -1.898187 0.193862 -0.006916 0.981004
2.633608 -22.015110 -1.416605 -0.866762 0.251976 -0.430385
-8.724733 -21.479753 -1.644133 0.873420 -0.323048 0.364386
-8.622388 -21.261595 -1.756314 0.887784 -0.147485 0.435990
-8.109940 -21.464470 -1.893242 0.225631 -0.015991 0.974082
-8.520083 -20.823473 -1.718661 0.815854 -0.354759 0.456649
-0.479033 -20.672853 -1.561617 0.936258 -0.348439 -0.044845
-8.287404 -20.299702 -1.800093 0.717244 -0.101626 0.689371
-0.453204 -20.358656 -1.655852 0.964004 -0.244374 0.104775
-8.008915 -19.789282 -1.883521 0.633677 -0.310671 0.708475
-6.156538 -19.613914 -1.433974 -0.806929 0.318104 0.497670
-0.292231 -19.857128 -1.736264 -0.947015 0.279646 -0.157989
-8.083223 -19.374502 -1.715824 0.981991 0.110437 0.153291
-0.133062 -19.273527 -1.679735 0.945713 -0.307614 -0.104880
-8.040863 -18.899149 -1.552191 0.976005 -0.199801 0.086568
-0.011024 -18.856316 -1.638075 0.950686 -0.299674 0.079940
0.189647 -18.259356 -1.580569 0.935411 -0.352914 0.021400
0.285391 -18.211376 -1.459633 0.940753 -0.319697 -0.113039
1.687719 -18.174261 -1.812097 0.988541 0.150435 0.012511
-7.496224 -17.713789 -1.922171 0.495377 0.671579 -0.550984
0.242692 -17.995832 -1.554776 0.951427 -0.306281 -0.031276
0.480761 -17.680761 -1.749078 -0.561178 0.714806 -0.417290
0.974045 -17.610329 -1.744282 0.152953 0.985286 0.076273
1.565935 -17.688095 -1.531412 0.480155 0.873289 -0.082565
-7.488745 -17.335749 -1.643460 0.951337 -0.259422 0.166307
-7.178793 -17.340580 -1.871501 0.551260 -0.320148 0.770466
0.672221 -17.477921 -1.613284 -0.103344 0.910310 -0.400820
1.000397 -17.465929 -1.505395 0.119278 0.951323 0.284178
-7.369352 -16.916382 -1.601796 0.872383 -0.384884 0.301352
-7.069055 -16.617659 -1.904066 0.623577 0.418126 0.660547
-6.716029 -15.669449 -1.884838 0.064461 -0.034727 0.997316
-6.603146 -15.745793 -1.887796 0.054856 -0.040936 0.997655
-6.339842 -15.093620 -1.886330 0.675412 0.717864 -0.168788
-6.070819 -15.314700 -1.899204 -0.051587 -0.121081 0.991301
1.696152 -15.155181 -1.662296 0.957136 -0.279368 0.076451
57.575840 -15.243647 -1.698577 -0.222982 0.109508 0.968652
-6.513093 -14.818125 -1.686515 0.922651 -0.224894 0.313270
-5.766605 -14.577031 -1.906809 -0.064978 -0.143436 0.987524
1.766457 -14.941609 -1.637475 0.946128 -0.322528 0.028601
1.838470 -14.598079 -1.671748 -0.873254 0.469078 -0.131882
-6.438510 -14.264661 -1.794947 0.687936 -0.090069 0.720160
-6.018178 -14.416658 -1.899891 0.330030 0.418773 0.845996
1.965852 -14.342078 -1.641976 0.932724 -0.360184 0.017142
-6.306395 -13.822053 -1.659303 0.970032 -0.230111 0.078019
-5.761385 -13.587708 -1.884558 -0.043390 -0.112810 0.992669
-5.479496 -13.813603 -1.898430 0.051808 0.128886 -0.990305
-4.924658 -13.594158 -1.906687 -0.055321 -0.142446 0.988255
2.128595 -13.751843 -1.570459 0.950375 -0.307320 0.048394
2.527032 -13.637912 -1.564672 0.507731 0.779481 0.366904
2.945529 -13.742952 -1.588734 0.048069 0.998300 -0.032973
39.111271 -13.777475 -1.874405 0.038436 0.396405 0.917271
39.595024 -13.827069 -1.408409 -0.026360 0.396343 0.917724
-6.228437 -13.541165 -1.623529 0.902531 -0.354884 0.243917
-6.070444 -13.323327 -1.868716 0.690789 0.192236 0.697034
-5.454870 -13.223696 -1.884880 0.056931 0.134503 -0.989276
-5.092499 -13.465516 -1.897755 0.056815 0.141519 -0.988304
2.230934 -13.572147 -1.645623 -0.299372 0.941617 -0.154056
2.419892 -13.530760 -1.644716 0.042090 0.990567 0.130403
19.212358 -13.086292 -1.505087 0.978930 -0.125107 0.161380
19.297224 -13.100172 -1.511090 0.965738 -0.255837 -0.043573
37.222210 -13.178943 -1.548549 0.928708 0.199184 0.312772
-5.889588 -12.887136 -1.866074 0.465483 0.209830 0.859824
-5.277718 -12.593717 -1.889384 -0.045788 -0.121782 0.991500
-4.970284 -12.799295 -1.900276 -0.045476 -0.124265 0.991207
-4.706018 -12.950593 -1.907207 -0.047432 -0.132054 0.990107
-1.294466 -12.661123 -1.888198 -0.013300 -0.154230 0.987945
-0.991628 -12.612924 -1.876318 -0.013065 -0.153464 0.988068
-0.711719 -12.552040 -1.863442 0.008012 0.165508 -0.986176
0.168415 -12.563508 -1.861698 -0.000034 -0.167529 0.985867
0.562428 -12.623942 -1.872776 0.007590 -0.148271 0.988918
1.005515 -12.735113 -1.893836 0.010218 -0.162891 0.986591
3.750879 -12.574276 -1.708853 0.561829 0.482810 0.671746
19.240856 -12.905012 -1.386193 0.977623 0.040849 0.206360
19.376921 -12.571437 -1.646398 -0.687680 0.162158 -0.707673
35.930882 -12.846917 -1.489617 0.224373 0.865781 0.447303
-5.875953 -12.521945 -1.493356 0.894429 -0.413904 0.169354
-5.586002 -12.294333 -1.866568 0.572176 0.673932 -0.467365
-4.105577 -12.064030 -1.892977 0.044815 0.014380 0.998892
-0.455430 -12.510470 -1.854548 -0.005608 -0.169097 0.985584
-0.085582 -12.531887 -1.856643 -0.003557 -0.173947 0.984749
2.758016 -12.246664 -1.625764 -0.537023 0.793164 0.287223
2.797637 -12.243400 -1.626780 -0.537023 0.793164 0.287223
3.291779 -12.187186 -1.579984 -0.544749 0.590916 0.595035
4.056866 -12.430621 -1.796058 -0.707406 0.310901 -0.634758
19.426846 -12.449898 -1.493472 -0.936697 -0.015291 -0.349807
-5.598500 -11.769813 -1.641968 0.957138 -0.289243 -0.014984
-4.868293 -11.623730 -1.871180 -0.041780 -0.109259 0.993135
-4.447698 -11.846755 -1.879079 -0.068354 -0.166218 0.983717
-4.194253 -12.018236 -1.890995 -0.060301 -0.155059 0.986063
-1.250313 -11.852644 -1.877797 -0.016448 -0.145258 0.989257
-0.969046 -11.835667 -1.869888 -0.016450 -0.145235 0.989260
-0.485021 -11.780731 -1.856068 -0.005074 -0.192596 0.981265
0.028873 -11.744761 -1.847249 -0.000352 -0.185490 0.982646
0.543652 -11.802077 -1.859367 -0.007018 0.167859 -0.985786
1.046584 -11.860764 -1.874485 0.012215 -0.174074 0.984657
1.449946 -11.967489 -1.898538 -0.021001 0.155285 -0.987647
3.165181 -11.634163 -1.499347 0.903329 0.350573 -0.247176
3.430831 -11.628581 -1.563438 -0.388059 -0.080729 0.918092
3.923349 -11.887658 -1.711411 0.913858 0.314115 0.257283
13.459204 -11.591578 -1.425077 0.974311 -0.184983 -0.128453
-5.417675 -11.210729 -1.616421 0.900477 -0.316740 0.298020
-5.089708 -11.491967 -1.866248 -0.059965 -0.136353 0.988844
-4.308273 -11.099346 -1.878664 -0.064156 -0.159329 0.985139
-4.063055 -11.241920 -1.886599 -0.061394 -0.157668 0.985582
-0.949164 -11.194441 -1.861359 -0.014910 -0.150061 0.988564
-0.458078 -11.162433 -1.850525 -0.009662 -0.161448 0.986834
0.028630 -11.089725 -1.835725 0.001378 -0.190191 0.981746
0.531030 -11.106157 -1.839869 0.006812 -0.191844 0.981402
1.018664 -11.129992 -1.850008 0.015375 -0.172812 0.984835
1.518624 -11.193991 -1.871124 -0.019439 0.185119 -0.982524
1.893269 -11.304156 -1.900167 -0.025395 0.181354 -0.983090
2.952201 -11.060979 -1.897695 -0.238838 -0.256025 0.936700
13.446184 -11.472022 -1.417150 0.970215 0.008544 -0.242096
18.100800 -11.063917 -1.617070 0.397669 0.852252 0.339889
18.587597 -11.202032 -1.659053 0.157170 0.967662 0.197303
18.959137 -11.264557 -1.689062 0.289502 0.954377 0.073161
19.477434 -11.478248 -1.459007 0.244942 0.967990 0.054762
-5.237673 -10.670588 -1.534859 0.975100 0.028462 0.219931
-4.972203 -10.722992 -1.865851 0.481967 0.155911 0.862207
-4.551497 -10.960816 -1.872730 -0.066942 -0.157269 0.985284
-3.878805 -10.634791 -1.880085 -0.066309 -0.169786 0.983248
-3.683269 -10.773099 -1.891017 0.034143 -0.024537 0.999116
-0.929596 -10.734226 -1.859699 -0.016142 -0.166436 0.985920
-0.491091 -10.700738 -1.847850 -0.010308 -0.173652 0.984753
0.009450 -10.631881 -1.833051 0.000123 -0.188112 0.982147
0.523623 -10.644211 -1.837203 0.008620 -0.176577 0.984249
1.025112 -10.673951 -1.849342 0.016455 -0.180822 0.983378
1.532426 -10.686928 -1.862498 0.023759 -0.187799 0.981920
1.957392 -10.780769 -1.891570 0.029675 -0.195260 0.980303
2.579551 -10.672515 -1.895855 -0.507220 0.133845 0.851360
3.338391 -10.931433 -1.462918 0.877949 -0.270822 -0.394792
4.027507 -10.740001 -1.901283 0.894661 0.315288 -0.316505
8.439839 -10.564310 -1.707688 -0.770428 -0.593895 0.231796
16.620249 -10.604837 -1.605141 0.360080 0.859681 0.362340
17.057066 -10.736000 -1.646123 0.220898 0.974289 0.044330
17.497852 -10.862187 -1.686108 0.225135 0.772249 0.594092
17.808783 -10.961536 -1.591091 0.352429 0.816157 0.457911
-5.302227 -10.430771 -1.508037 0.781822 0.608140 0.137552
-4.997812 -10.157855 -1.782283 0.494158 -0.215620 0.842209
-4.438183 -10.282762 -1.860261 -0.070089 -0.159232 0.984750
-3.877127 -10.129088 -1.877465 -0.063527 -0.164485 0.984332
-3.597464 -10.252230 -1.880421 -0.067777 -0.176947 0.981884
-0.903252 -10.255944 -1.863054 -0.015606 -0.194690 0.980741
-0.451917 -10.225331 -1.851207 -0.009897 -0.178292 0.983928
0.041637 -10.159560 -1.836404 0.001428 -0.195517 0.980699
0.545138 -10.101004 -1.826604 0.008854 -0.204325 0.978863
1.038654 -10.134851 -1.840739 0.019396 -0.181728 0.983158
1.552805 -10.146830 -1.854898 0.028129 -0.198688 0.979659
2.037885 -10.215308 -1.884009 0.035748 -0.183256 0.982415
2.558429 -10.257647 -1.649152 0.988742 -0.127418 -0.078451
2.815535 -10.108186 -1.806347 -0.877700 0.274979 0.392465
3.526786 -10.172820 -1.443534 0.936572 -0.350037 0.017548
3.878200 -10.306117 -1.901552 0.879869 0.304975 0.364446
8.039437 -10.095392 -1.678912 0.728325 0.630455 -0.268458
8.470521 -10.453475 -1.607772 0.819397 0.461029 -0.340647
9.255366 -10.181626 -1.742143 0.947151 -0.210018 0.242482
9.288927 -10.155638 -1.742168 0.950199 -0.185461 0.250453
14.692467 -10.044571 -1.652201 0.203318 0.978368 0.038174
15.014152 -10.127995 -1.684198 0.033964 0.836295 0.547227
15.470825 -10.259097 -1.617185 0.228077 0.891051 0.392439
16.012674 -10.438970 -1.672155 0.118352 0.963878 0.238603
16.285978 -10.194919 -1.799325 -0.139244 0.409722 0.901521
17.606709 -10.485871 -1.807324 0.077482 0.657938 0.749076
27.754768 -10.113917 -1.464299 0.526461 0.624517 0.576903
28.618725 -10.479875 -1.891196 -0.508523 -0.088662 0.856472
29.076534 -10.545400 -1.542193 -0.064885 0.988339 -0.137750
40.655991 -10.305877 -1.658724 0.209866 -0.173565 0.962201
41.204472 -10.254128 -1.430756 0.209866 -0.173565 0.962201
-4.887506 -9.822542 -1.723554 0.874064 -0.189934 0.447143
-4.468370 -9.756653 -1.857658 -0.067129 -0.149914 0.986417
-4.059722 -9.995689 -1.866535 -0.066715 -0.163604 0.984268
-3.490965 -9.713101 -1.871843 -0.062097 -0.166884 0.984019
-0.882498 -9.597706 -1.849537 -0.072585 0.058051 0.995671
-0.549217 -9.554263 -1.834665 -0.012317 -0.199819 0.979755
2.254176 -9.764803 -1.645411 0.136653 0.989414 0.048848
2.567841 -9.919738 -1.685402 -0.421916 0.901534 0.096037
2.955739 -9.774431 -1.678637 0.932735 -0.340322 -0.119108
3.504605 -9.850327 -1.721763 0.298240 0.856725 0.420804
7.348016 -9.642077 -1.510051 -0.667522 0.739494 0.086966
8.769523 -9.633137 -1.790401 0.631885 0.202493 0.748143
9.219288 -9.953367 -1.776287 0.980943 0.018187 0.193444
9.337451 -9.831517 -1.775395 0.975402 0.216014 0.043907
13.607971 -9.564432 -1.741325 0.082333 0.213301 0.973511
13.980327 -9.632876 -1.782338 0.002319 0.237791 0.971313
14.531334 -9.967012 -1.633223 0.233334 0.972362 -0.008239
15.121976 -9.899943 -1.799341 -0.081673 0.344932 0.935068
15.345528 -9.675799 -1.806494 0.090199 -0.055045 0.994401
16.579037 -9.917023 -1.810511 -0.305347 0.312127 0.899633
24.599215 -9.661852 -1.612309 0.742789 -0.632155 0.220556
25.510607 -9.764191 -1.808319 -0.774066 -0.039152 -0.631892
-4.746754 -9.328932 -1.638952 0.970524 -0.106472 0.216209
-4.382088 -9.154973 -1.840130 -0.082125 -0.168435 0.982286
-4.003228 -9.396353 -1.851997 -0.081738 -0.183144 0.979682
-3.234663 -9.068010 -1.850371 -0.064597 -0.175310 0.982392
-3.161192 -9.084018 -1.848372 0.026453 0.001811 0.999648
-0.854848 -9.261423 -1.867789 -0.070198 0.038062 0.996807
-0.474266 -9.199507 -1.848944 -0.011447 -0.211710 0.977266
0.013271 -9.146776 -1.834130 -0.003648 -0.199314 0.979929
0.516792 -9.420224 -1.806090 0.009804 -0.203884 0.978946
1.031494 -9.406922 -1.811266 0.020520 -0.217525 0.975839
1.550230 -9.395933 -1.823446 0.030922 -0.181868 0.982837
2.040752 -9.426464 -1.847587 0.042758 -0.192627 0.980340
2.533583 -9.478254 -1.881714 0.052803 -0.174134 0.983305
3.035080 -9.496147 -1.709867 0.931952 -0.358824 -0.052065
3.694971 -9.198911 -1.786301 -0.730775 0.644769 0.224143
4.228764 -9.055410 -1.453576 0.292765 0.859632 0.418714
4.339390 -9.106881 -1.468573 0.425298 0.888918 0.170135
6.675596 -9.090062 -1.522261 0.555132 0.808452 0.195536
6.816401 -9.254339 -1.555183 0.461949 0.883474 0.077949
7.569132 -9.496019 -1.795208 -0.423329 0.870035 0.252650
8.706307 -9.182467 -1.500688 -0.865162 0.419553 -0.274717
8.916847 -9.346710 -1.774625 -0.696473 0.134617 -0.704843
9.338456 -9.530401 -1.683594 -0.769940 -0.367258 0.521836
11.640087 -9.109925 -1.609293 0.290295 0.939077 0.184019
12.093590 -9.248940 -1.576282 0.168601 0.974632 0.147192
12.505165 -9.259546 -1.616340 0.046029 0.635639 0.770613
13.220955 -9.291883 -1.778427 0.046645 0.123936 0.991193
13.344453 -9.163338 -1.782519 0.002521 0.121085 0.992639
14.165868 -9.407718 -1.785492 -0.451823 0.453620 0.768170
14.390017 -9.141750 -1.790670 0.102670 -0.065748 0.992540
15.565843 -9.412868 -1.812665 0.093950 -0.056222 0.993988
15.955011 -9.046391 -1.829904 0.096349 -0.054418 0.993859
16.981274 -9.417179 -1.821819 -0.004989 0.029366 0.999556
22.744953 -9.170845 -1.903406 -0.003163 0.077290 0.997004
23.056158 -9.283142 -1.626377 0.184824 -0.010177 0.982719
24.691132 -9.492718 -1.430386 -0.665491 0.743575 -0.064944
25.150446 -9.473788 -1.643420 -0.114501 0.889703 -0.441949
25.283573 -9.344475 -1.649481 0.689363 -0.202290 0.695598
-4.749284 -9.022277 -1.593190 0.982209 -0.177015 0.062704
-4.663196 -8.748429 -1.707413 0.966942 -0.178628 0.181974
-3.910033 -8.669630 -1.828563 -0.083813 -0.182231 0.979677
-3.456789 -8.935097 -1.841432 -0.072500 -0.184666 0.980124
-3.071305 -8.689039 -1.853683 0.153119 0.272091 0.950011
-0.778834 -8.909619 -1.865066 -0.079266 0.014408 0.996749
-0.453759 -8.846284 -1.846207 -0.009757 -0.230616 0.972996
0.028559 -8.773611 -1.826406 -0.000342 -0.208988 0.977918
0.557373 -8.702871 -1.813625 0.018352 -0.247850 0.968625
1.056700 -8.652770 -1.812824 0.026023 -0.223001 0.974471
1.575175 -8.631886 -1.825012 0.037341 -0.206402 0.977755
2.018878 -8.935748 -1.834938 0.045695 -0.222653 0.973826
2.500530 -8.967675 -1.867076 0.055628 -0.193514 0.979519
3.029396 -8.954629 -1.897262 0.067853 -0.200454 0.977350
3.763826 -8.872811 -1.648561 -0.704057 0.702538 0.103656
3.989152 -8.899758 -1.669613 0.175018 0.979284 0.101849
4.303576 -9.002248 -1.637638 0.712682 0.700467 0.037831
6.243986 -8.754098 -1.854381 0.062477 0.271340 0.960454
6.434756 -8.951050 -1.617294 0.122122 0.980835 0.151821
6.859901 -8.664742 -1.828604 -0.073058 -0.103702 0.991922
8.226437 -8.735753 -1.772879 -0.114059 0.061027 0.991598
8.658472 -8.675151 -1.585013 0.970334 -0.230433 -0.073161
8.806761 -8.782535 -1.471973 0.808975 0.136609 -0.571750
10.012981 -8.580686 -1.721339 0.534135 0.844013 0.048385
10.684284 -8.816072 -1.756311 -0.569637 0.613942 0.546434
11.016707 -8.904340 -1.606314 0.201763 0.961989 -0.184032
11.594180 -8.988496 -1.773359 -0.105591 0.624546 0.773817
12.694898 -8.843171 -1.773612 -0.405236 0.413216 0.815498
12.877607 -8.645889 -1.778750 -0.283791 0.307827 0.908133
13.609274 -8.884372 -1.790713 0.117226 -0.080938 0.989802
13.841579 -8.641319 -1.798878 0.118726 -0.080893 0.989626
14.660326 -8.902684 -1.802834 -0.566870 0.615093 0.548014
14.917651 -8.650726 -1.813999 -0.307449 0.460668 0.832623
15.343871 -8.694284 -1.636023 -0.081672 0.426814 0.900644
16.125582 -8.911961 -1.838992 0.091483 -0.047995 0.994649
16.365076 -8.649140 -1.848150 -0.202285 0.180802 0.962492
19.696381 -8.631241 -1.643439 0.898162 -0.438033 -0.037843
20.365896 -8.568469 -1.826514 -0.843324 -0.041199 0.535824
21.121954 -8.606092 -1.625548 0.132113 0.989301 0.061891
21.843121 -8.812826 -1.415504 0.428979 0.894613 0.125080
44.368610 -8.703172 -1.805294 0.279738 0.958521 -0.054635
45.140591 -8.792609 -1.567282 0.348141 0.937436 -0.003481
-4.440550 -8.308736 -1.811778 0.536215 0.062408 0.841771
-3.972952 -8.244951 -1.841880 -0.091759 -0.186568 0.978148
-3.428605 -8.135289 -1.845039 -0.085503 -0.198120 0.976441
-3.022898 -8.308600 -1.846976 -0.077497 -0.201687 0.976379
-0.834664 -8.315205 -1.877481 0.029673 -0.005937 0.999542
-0.518371 -8.274921 -1.861602 -0.096318 0.067489 0.993060
0.024156 -8.411631 -1.820667 -0.054240 0.057174 0.996890
0.542802 -8.322986 -1.802896 -0.041999 0.053567 0.997681
1.016002 -8.243107 -1.794109 0.029861 -0.244461 0.969199
1.516166 -8.184381 -1.798319 0.040409 -0.220176 0.974623
2.019341 -8.122005 -1.808534 0.054675 -0.224387 0.972965
2.600364 -8.105531 -1.840741 0.067290 -0.204420 0.976568
3.024585 -8.502959 -1.879591 0.071680 -0.201368 0.976889
3.491822 -8.461644 -1.907773 0.080206 -0.185426 0.979379
3.928343 -8.136935 -1.723149 0.797799 -0.591319 0.117724
6.058228 -8.192829 -1.840726 -0.027854 -0.019890 0.999414
6.562170 -8.319288 -1.825768 -0.324441 0.172735 0.930000
7.013705 -8.078835 -1.567044 -0.063441 0.985823 0.155334
7.446190 -8.182733 -1.625074 0.016646 0.997908 -0.062483
7.853902 -8.187060 -1.781162 0.252382 -0.203609 0.945963
8.735216 -8.388989 -1.651216 -0.962002 0.141828 0.233316
9.007411 -8.040787 -1.559493 0.095513 0.977586 -0.187623
9.510626 -8.202621 -1.630484 0.251675 0.923567 -0.289281
9.918117 -8.340668 -1.688471 0.036858 0.795151 0.605290
10.622016 -8.328015 -1.767600 0.111167 -0.085961 0.990077
11.135166 -8.347469 -1.765670 -0.004386 0.013152 0.999904
12.165514 -8.356630 -1.785817 0.126090 -0.089995 0.987928
12.353880 -8.122522 -1.788976 0.123516 -0.085511 0.988651
13.123550 -8.373934 -1.786935 0.119566 -0.080903 0.989525
13.403625 -8.118939 -1.800110 0.104809 -0.060419 0.992655
14.155622 -8.384336 -1.816055 0.102831 -0.059501 0.992918
14.505598 -8.248718 -1.434166 -0.993779 0.007658 -0.111103
15.204070 -8.409747 -1.829156 -0.350377 0.187476 0.917654
15.317717 -8.133043 -1.826309 0.718187 -0.040083 0.694695
16.459101 -8.405308 -1.845281 -0.107355 0.127857 0.985965
18.016781 -8.085478 -1.735565 0.410885 0.899562 -0.148199
18.405071 -8.234646 -1.900526 0.205683 -0.098096 0.973690
19.732073 -8.435238 -1.517530 -0.805928 0.590053 0.048135
20.021736 -8.293958 -1.658613 -0.354729 0.918903 -0.172583
20.555494 -8.390307 -1.431606 0.289935 0.956516 -0.031864
32.963940 -8.080084 -1.714238 0.933451 0.357929 0.023570
43.006233 -8.099740 -1.481439 0.319253 0.920131 -0.226798
43.694004 -8.428804 -1.773359 0.293184 0.933401 -0.206897
44.010887 -8.430766 -1.521363 0.318829 0.934857 -0.156173
-4.399046 -7.794663 -1.715185 0.997544 0.061124 0.034207
-3.978328 -7.819469 -1.834208 -0.095703 -0.185437 0.977985
-3.469881 -7.682237 -1.831377 -0.098310 -0.212561 0.972190
-2.966644 -7.915067 -1.835280 -0.085020 -0.217377 0.972378
-2.571916 -7.732893 -1.832488 -0.080117 -0.187637 0.978965
-1.854326 -7.590837 -1.832745 0.246682 -0.072159 0.966406
-1.412836 -7.950604 -1.896590 -0.044826 -0.232050 0.971670
-0.881539 -7.833561 -1.699818 -0.588312 0.804582 0.080852
-0.473150 -7.809423 -1.831953 -0.015083 -0.248209 0.968589
0.025805 -7.746577 -1.811150 -0.003385 -0.230274 0.973120
0.526463 -7.660117 -1.793373 0.013127 -0.236265 0.971600
1.010491 -7.988177 -1.802293 0.029537 -0.239152 0.970533
1.529140 -7.905351 -1.801527 0.044333 -0.237976 0.970259
2.041106 -7.837981 -1.812749 0.059342 -0.226966 0.972093
2.535451 -7.777095 -1.830960 0.072040 -0.230946 0.970296
3.063863 -7.737369 -1.865164 0.086839 -0.231143 0.969037
3.511001 -7.947059 -1.881155 0.092408 -0.219914 0.971133
4.068316 -7.793797 -1.672442 0.924673 -0.344191 0.162825
4.280690 -7.630318 -1.818624 0.759660 -0.285810 0.584149
5.669410 -7.681987 -1.827981 -0.079591 0.039953 0.996027
6.218181 -8.012854 -1.831893 -0.033915 -0.005210 0.999411
6.558381 -7.682944 -1.824205 -0.560818 0.452435 0.693387
6.986261 -7.829683 -1.807206 -0.188069 0.149226 0.970753
7.409676 -7.823924 -1.780306 -0.493627 0.211963 0.843448
8.098951 -7.833796 -1.768447 -0.187029 0.116104 0.975469
8.538432 -7.809249 -1.705551 -0.729369 0.599643 0.329315
9.027242 -7.827599 -1.765631 -0.254909 0.563968 0.785469
10.189302 -7.951908 -1.776757 0.110554 -0.084122 0.990304
10.700206 -7.836895 -1.673906 -0.472179 0.879745 0.055642
11.010106 -7.844603 -1.618948 -0.075224 0.988057 -0.134480
11.594291 -7.874103 -1.780015 0.021549 0.042055 0.998883
11.889361 -7.648910 -1.798181 0.112523 -0.069866 0.991190
12.623252 -7.911308 -1.805129 0.118810 -0.076622 0.989956
12.898440 -7.669279 -1.819294 0.107110 -0.060993 0.992375
13.701554 -7.839107 -1.815294 -0.190713 0.178251 0.965326
13.901612 -7.528516 -1.818476 -0.044172 0.235466 0.970878
14.559946 -7.787011 -1.823410 -0.767721 0.544219 0.338275
15.055740 -7.920123 -1.571392 -0.563420 -0.269177 -0.781090
15.440329 -7.983734 -1.830396 0.415973 -0.091892 0.904722
15.881381 -7.709952 -1.754571 -0.284194 -0.413485 0.865023
16.438444 -7.595355 -1.574672 0.164878 0.983012 0.080638
17.235756 -7.865783 -1.656608 0.248436 0.964052 0.094253
17.522068 -7.843790 -1.445639 0.285708 0.955949 0.067328
32.618340 -7.617790 -1.688376 -0.951524 -0.237997 0.194832
33.117371 -7.957812 -1.902281 0.933451 0.357929 0.023570
41.246227 -7.884079 -1.902470 -0.094821 0.992333 -0.079270
42.242825 -7.875103 -1.705488 0.263760 0.903070 -0.338962
-4.342388 -7.305456 -1.704576 0.885231 -0.366210 0.286804
-4.016593 -7.366555 -1.824556 -0.109010 -0.195323 0.974662
-3.485385 -7.348766 -1.830630 -0.092565 -0.192967 0.976829
-2.952048 -7.133376 -1.811870 -0.096132 -0.225637 0.969457
-2.460279 -7.332601 -1.813807 0.199793 0.643613 0.738814
-1.905810 -7.232425 -1.670996 0.749747 -0.661718 0.003102
-1.463313 -7.259017 -1.591081 0.201438 0.807321 0.554666
-1.082660 -7.462741 -1.683032 0.751401 0.391095 -0.531452
-0.475519 -7.440420 -1.816220 -0.028892 0.119051 0.992468
0.003598 -7.172763 -1.821560 0.000993 -0.275477 0.961307
0.526202 -7.329115 -1.786614 0.016759 -0.255957 0.966543
1.006718 -7.219259 -1.770853 0.039002 -0.269274 0.962274
1.497419 -7.135743 -1.770079 0.043844 -0.198485 0.979123
1.996647 -7.378438 -1.783071 0.062899 -0.236539 0.969584
2.518738 -7.330472 -1.809281 0.078151 -0.226382 0.970898
3.031762 -7.249965 -1.836509 0.094492 -0.228858 0.968863
3.511454 -7.093049 -1.849777 0.109804 -0.226299 0.967849
4.128309 -7.393135 -1.606750 -0.688875 0.440753 -0.575490
4.512832 -7.281100 -1.777944 0.484158 0.868647 0.105094
5.040506 -7.450096 -1.609974 0.123447 0.992140 -0.020451
5.537891 -7.367056 -1.847167 -0.046387 0.036404 0.998260
6.062461 -7.297010 -1.815349 -0.103976 0.035785 0.993936
6.716254 -7.390453 -1.801440 -0.277275 0.078212 0.957602
6.870975 -7.170838 -1.791622 0.128445 -0.134183 0.982597
7.393054 -7.178993 -1.772729 0.137837 -0.132586 0.981541
7.927491 -7.208163 -1.769817 0.130042 -0.116720 0.984614
8.583660 -7.350860 -1.773850 -0.145333 0.164373 0.975633
8.811977 -7.083631 -1.775056 0.135035 -0.108230 0.984912
9.523909 -7.295129 -1.774045 0.125271 -0.095333 0.987532
10.690710 -7.444583 -1.793134 0.125853 -0.086813 0.988243
10.922579 -7.184561 -1.800315 0.120053 -0.076949 0.989781
11.582572 -7.322554 -1.798324 0.111724 -0.067987 0.991411
12.142746 -7.313301 -1.803397 -0.120384 0.105189 0.987139
12.539712 -7.082215 -1.835566 0.138771 0.137078 0.980792
13.096126 -7.324819 -1.819498 -0.020474 0.180004 0.983453
13.591478 -7.408234 -1.883507 0.065674 0.213458 0.974742
13.987321 -7.518535 -1.827490 0.027125 0.210896 0.977132
14.797109 -7.347049 -1.520653 0.841402 -0.455689 0.290499
14.860944 -7.205747 -1.519727 -0.596919 0.564337 -0.570274
15.506824 -7.379724 -1.700698 -0.664139 0.661694 -0.347966
16.033276 -7.456141 -1.420705 0.324902 0.936307 -0.133293
16.565975 -7.113907 -1.906903 0.087239 -0.043040 0.995257
18.896246 -7.110552 -1.904053 0.070140 -0.035399 0.996909
20.204792 -7.163108 -1.902102 -0.084809 0.032365 -0.995872
21.835485 -7.093345 -1.906207 0.092156 -0.028207 0.995345
23.426105 -7.342816 -1.907180 0.085938 -0.025780 0.995967
32.735153 -7.322519 -1.691470 0.955996 -0.265795 -0.124199
39.754498 -7.152421 -1.591646 0.475143 0.771152 0.423749
39.810707 -7.225007 -1.826627 0.471772 0.785290 0.400938
40.778301 -7.531179 -1.876559 0.100503 0.884547 0.455495
-4.247790 -6.713754 -1.587055 0.731644 0.628977 -0.262841
-4.172907 -6.774638 -1.725011 0.869994 -0.100121 0.482790
-3.475488 -6.834120 -1.801027 -0.121416 -0.229653 0.965670
-2.966164 -6.716885 -1.794183 -0.096735 -0.216792 0.971413
-2.444727 -6.668741 -1.809304 -0.087281 -0.235078 0.968050
-1.925575 -6.866903 -1.815260 -0.072144 -0.248706 0.965889
-1.449307 -6.798171 -1.895421 0.160882 0.042516 0.986058
-0.970546 -6.814678 -1.874533 -0.054131 0.000212 0.998534
-0.470991 -6.737360 -1.835731 -0.058803 -0.000496 0.998269
0.067793 -6.851136 -1.794814 0.004427 -0.296411 0.955050
0.553456 -6.780890 -1.781022 0.016080 -0.253817 0.967119
1.010314 -6.697297 -1.771235 0.036174 -0.260700 0.964742
1.492668 -6.589936 -1.766478 0.060502 -0.276237 0.959183
2.053600 -6.785406 -1.795525 0.074869 -0.249902 0.965372
2.492050 -6.703089 -1.812732 0.088590 -0.239015 0.966966
3.024272 -6.844410 -1.818803 0.098914 -0.225765 0.969147
3.558138 -6.664454 -1.837103 0.115910 -0.216345 0.969412
4.133500 -6.883954 -1.592118 0.410457 -0.156867 0.898286
4.455574 -6.776190 -1.676288 0.124953 -0.594237 0.794524
4.989630 -6.799769 -1.891419 -0.090538 -0.002413 0.995890
5.632225 -6.915953 -1.856504 -0.043216 -0.008210 0.999032
6.069550 -6.760485 -1.819716 -0.087837 -0.012038 0.996062
6.396577 -6.770859 -1.780784 -0.150742 -0.008279 0.988539
7.058906 -6.794750 -1.765911 0.156485 -0.142426 0.977357
7.683415 -6.880630 -1.774979 0.133372 -0.118419 0.983966
8.176317 -6.917920 -1.769047 0.139562 -0.118513 0.983096
8.425887 -6.690540 -1.778232 0.134748 -0.104228 0.985383
9.098936 -6.793531 -1.784279 0.126376 -0.092389 0.987671
9.778285 -7.018060 -1.780250 0.113365 -0.078496 0.990448
9.940560 -6.788923 -1.781407 0.136316 -0.093352 0.986257
11.149308 -6.894739 -1.805506 0.129554 -0.080692 0.988284
11.583120 -6.795002 -1.854612 0.118032 0.229725 0.966072
11.960213 -6.818735 -1.906641 0.024010 0.220563 0.975077
12.642814 -6.879169 -1.899682 0.139976 0.020607 0.989940
13.181494 -6.757580 -1.894797 0.114005 -0.061056 0.991602
14.058603 -6.777227 -1.901866 0.103782 -0.053484 0.993161
14.900157 -6.823776 -1.892912 0.097576 -0.048476 0.994047
15.726443 -6.806691 -1.900982 0.098802 -0.045340 0.994074
16.605824 -6.795591 -1.897048 0.095156 -0.042123 0.994571
17.720663 -6.731773 -1.899144 0.071102 -0.037208 0.996775
18.889460 -6.806222 -1.892178 0.077549 -0.035140 0.996369
20.194622 -6.772282 -1.889256 0.101820 -0.030344 0.994340
21.854742 -6.762212 -1.899332 0.091600 -0.027383 0.995419
